x	y	z
28.58894034	40.34573334	-0.443609629
28.56731537	40.07189912	1.357431949
27.78967768	35.73254265	6.686837177
28.54636331	39.52713596	1.344886363
27.90953893	35.6603587	6.689321498
27.79784509	35.29400928	6.636567095
27.76896539	35.03567411	6.60397909
27.73732035	37.71281614	3.004397536
27.84457867	37.61631375	3.003500844
27.85372954	37.38825885	2.99210086
28.12588165	34.81899987	8.307026905
27.88150079	37.18685455	2.982814456
28.34159989	34.86667415	10.07407848
27.77418138	36.5845857	4.62277696
28.72057393	34.89327426	10.13249103
27.86575322	36.47232193	4.619372343
28.59892244	40.08458896	0.889593335
27.74237013	35.87594696	6.251845861
27.82371121	35.75392338	6.245427632
28.5678939	39.52587585	0.881067486
27.73720836	35.41803753	6.201591039
28.62794253	39.38875038	2.662703424
27.79668531	35.27053016	6.190665747
28.56589903	39.05090541	2.645776897
27.7654571	35.03329135	7.845136043
28.51330155	38.72909094	2.629887967
27.78252784	34.8347476	7.819726343
28.11778316	34.82466765	9.566901971
28.04492298	37.39478841	4.265442805
28.28923978	34.81793185	9.588848879
27.95733562	37.04070526	4.234817938
28.59276401	34.97173103	9.655318072
27.77808575	36.569348	4.19065185
28.63821758	40.620867	0.431132657
15.52827208	17.24368065	-0.834666958
28.58587161	39.51678045	2.20449703
15.59452206	17.21077054	-0.835385909
27.70486299	35.36099724	5.756196994
28.51469876	39.16480514	2.189731767
15.59473391	17.10524299	-0.832582106
28.55205488	38.96432785	2.183410336
15.69172557	17.10592338	-0.83495455
15.734642	17.04741978	-0.834451308
15.76102649	16.97123992	-0.833085348
28.14744774	34.8684141	9.123551955
27.87131391	37.1128397	3.79546126
16.01331927	18.32531822	-1.102114525
27.9003093	36.91504517	3.783969246
16.0819986	18.2903582	-1.102974143
16.10957359	18.20876074	-1.101028767
15.57220429	17.49293277	-1.06062862
15.52048885	17.32750373	-1.053480592
15.52341608	17.2241523	-1.050087419
27.74603243	35.41306742	7.016792859
27.78664288	35.2416527	6.999687279
27.74539651	34.96815395	6.962239349
15.74320797	16.96073236	0.638308168
16.33491524	16.18987653	2.54395918
28.48027175	34.88660881	10.47181661
16.93914276	16.58220821	5.314662378
16.95776528	16.49885992	5.304599203
15.50245544	15.08451385	3.195238093
17.02794443	16.46575024	5.310724656
15.53230508	15.0210646	3.191876868
17.11215121	16.44588615	5.321225565
15.49486829	14.89313458	3.174779157
17.09972698	16.33332587	5.301754874
15.55837034	14.86261002	3.178432445
17.56534223	16.65434586	7.398530396
17.11508046	16.24786806	5.291035097
15.56371929	14.77666364	3.170248965
17.47158746	16.46395944	7.337730798
15.69963872	14.81439166	3.188662032
17.38730176	16.28411205	7.281316193
16.45186079	15.41826816	5.948869647
15.71109989	14.73434948	3.181793669
15.70356447	17.00972746	0.418234767
16.57408509	15.43757809	5.975911083
16.25382042	16.28828772	2.315844511
15.74614889	16.95121364	0.417981865
14.53864425	15.62502705	-1.173442538
16.61214481	15.37811832	5.972594681
16.29736964	16.23202633	2.314943289
14.5619461	15.55410873	-1.171466286
16.60516731	15.27732532	5.953206482
14.59453484	15.49337096	-1.170258458
14.63306976	15.43910109	-1.16954487
16.33098539	14.74002295	6.724182993
16.40318171	14.71411643	6.735290438
15.17153927	14.6632713	2.908651614
15.29003933	14.68734226	2.922717595
16.63130425	14.73559214	6.791705519
15.48478094	14.78333363	2.95125916
15.51712808	14.72348319	2.948801064
15.70276412	14.80834139	2.975430752
15.68880716	14.71427881	3.774861451
15.85923963	14.78293303	3.80493867
12.02920632	10.32395257	0.010790113
16.76811582	15.45029325	6.700294718
12.08403665	10.2505354	0.58907975
16.47518394	14.99451596	6.546355473
12.29345078	10.36348879	0.597735596
16.53320444	14.95484203	6.551148638
15.1552823	14.73138742	2.708230513
12.42237983	10.41379262	1.195789203
12.38110657	10.37257174	0.600447547
16.46627362	14.80270411	6.506602035
15.18043156	14.66552546	2.70467164
12.63843395	10.53840385	1.820207755
12.51194009	10.41701975	0.60523982
16.52663455	14.76554016	6.51252292
15.69561743	15.08621915	3.606393859
15.21962946	14.61338784	2.703654785
12.69978803	10.52367992	1.824385564
12.51381314	10.35374065	0.603790951
16.8265442	14.94091393	6.612611044
15.73112714	15.02777201	3.603942439
15.51267453	14.8035598	2.747631092
12.76193854	10.50930879	1.828673285
12.43067546	10.22741857	1.187475905
12.55864076	10.32608887	0.604422521
15.79075151	14.99234562	3.607047603
12.87719359	10.5380904	1.840547125
12.495854	10.21037092	0.599890303
15.82877999	14.93638186	3.60524969
12.94956203	10.5311435	1.846264164
16.01845132	15.02272443	3.637935684
12.99881737	10.50510969	1.848682802
16.51281993	16.53354657	2.770666602
17.38188115	16.14667772	6.717340706
12.15984788	10.43262036	0.441935361
17.43275063	16.09457912	6.717885729
12.21689998	10.41666785	0.442845256
16.94607878	15.5492325	6.511927365
12.28998253	10.41403431	0.44433418
17.22404873	15.70723019	6.600195167
12.35934109	10.40783112	0.445685238
16.00861187	15.56064658	3.482044304
12.56013141	10.525399	1.649239397
12.42089923	10.4057705	1.03989258
12.4540742	10.42247045	0.447946191
16.93333676	15.25286641	6.452810045
16.12378541	15.57667727	3.496684398
12.62218145	10.51164746	1.653144693
12.51673345	10.40978027	0.449049116
15.76738802	15.13912902	3.409305895
12.70496164	10.51474253	1.659753656
12.44145546	10.29373587	1.036306167
17.15388576	16.41650455	5.520935124
15.52926538	14.8191984	3.347971286
12.77635126	10.50794698	1.664860581
12.46681136	10.25044716	1.035793806
17.13924071	16.30204271	5.500098772
15.57178912	14.76876565	3.347354736
12.8593749	10.510258	1.671469545
17.17430979	16.23533229	5.495342797
15.61846426	14.72227827	3.347663011
12.92476904	10.49772979	1.675775384
15.67221	14.68239794	3.349512422
16.71215664	15.64036235	6.245472418
16.56509664	15.40767286	6.17282008
12.06314711	10.34184421	0.287059994
16.69658875	15.43470891	6.204144941
12.10927876	10.31710663	0.287403168
16.74883724	15.38798109	6.205987442
12.17673755	10.3102733	0.288252147
16.83799966	15.37490364	6.221518501
12.30470519	10.35397894	0.29052812
16.86723037	15.30696508	6.214937673
12.53294587	10.49689412	1.491819099
12.46501637	10.43259912	0.888860075
12.35482071	10.33157297	0.290961625
12.59647394	10.48451436	1.495544986
12.40414576	10.30831819	0.291377069
12.69303932	10.49913783	1.503178553
12.47348762	10.30141218	0.292262169
12.7905814	10.51389857	1.510902957
12.83588896	10.48531857	1.512447909
12.90047041	10.47225002	1.516264633
12.08439359	10.34931471	0.138014836
12.11837175	10.31413554	0.138040868
12.1881319	10.30919736	0.138474567
12.4841852	10.50747046	1.334377491
12.32227377	10.35797579	0.139636917
12.52247891	10.47423628	1.335029565
12.42817092	10.38429841	0.732032826
12.35859835	10.32396952	0.139688952
12.55378804	10.43513123	1.334948027
12.45074771	10.33846234	0.73149096
12.40021595	10.2943091	0.139801724
12.57191179	10.38514183	1.333481036
12.39842114	10.2309111	0.726569225
12.71849656	10.44074893	1.345625006
12.4158455	10.18142329	0.725756456
12.84623209	10.47980303	1.355731451
10.21838443	6.528045198	0.450772148
8.988429543	5.093553235	-0.371610125
8.998788251	5.063013165	-0.371394446
9.169577188	5.122131097	-0.377792855
9.120853564	5.0632598	0.007100836
9.075130503	5.032905676	-0.373263647
9.240228467	5.087460701	-0.379410406
9.278954808	5.076797432	0.007199535
9.417081096	5.109786028	-0.385377457
8.9448927	5.278122107	-0.852974825
9.420519388	5.534247217	0.301369697
9.347779928	5.040174977	0.007228804
9.441665959	5.053470715	0.007289385
8.898718398	5.177527478	-0.845526389
8.940450022	5.165159329	-0.847981921
8.943287257	5.130267531	-0.846754126
8.977532114	5.118974312	-0.468017515
8.958119118	5.102312509	-0.846672289
8.954075411	5.069260348	-0.465981689
8.96939214	5.072352123	-0.846263042
9.001806003	5.059877007	-0.467655596
8.98491214	5.044810478	-0.846263043
9.135619036	5.103711093	-0.093880173
9.168200658	5.11645572	-0.475482282
8.995124264	5.014309791	-0.845771901
9.2657892	5.139196466	-0.09505536
9.181233316	5.086851574	-0.475346562
9.002616789	4.982346368	-0.845035247
9.372731147	5.155432691	-0.484439995
8.996022863	4.942705125	-0.842988959
9.325376753	5.092181899	-0.481182632
9.014644368	4.916991541	-0.843316368
9.406737219	5.104731745	-0.096015241
9.265426517	5.022605576	-0.477291909
8.99638375	4.871278655	-0.840206019
9.39251308	5.054274856	-0.483037528
8.99197363	4.833274507	-0.838405303
8.990931224	4.797219853	-0.836931936
8.968615487	4.75002171	-0.833494178
8.961974632	4.711353886	-0.831529729
9.016762052	5.134802385	-0.570498939
8.959597948	4.675076622	-0.829974583
9.04898786	5.116452792	-0.57154202
8.966819334	4.643900264	-0.829319767
9.136037818	5.128746401	-0.57604366
8.975705182	4.613634827	-0.828828625
9.121541257	5.089294764	-0.190711347
9.222375658	5.140067949	-0.580490405
8.973837693	4.577924082	-0.827355318
9.149356667	5.068069011	-0.190966917
9.27130113	5.130119915	-0.582576508
8.99139685	4.552171765	-0.827682726
9.239738679	5.075691756	-0.579612012
8.998196002	4.520985572	-0.827027909
9.342632145	5.100466778	-0.194344116
9.369226353	5.109468182	-0.586748773
8.930440613	5.151116169	-0.665423747
8.968717322	5.136588846	-0.6670984
9.00525289	5.120887775	-0.668644246
9.469386024	5.359525244	0.491814782
9.090440422	5.13248633	-0.673797068
9.102410805	5.106448559	-0.291165513
9.294531906	5.139505117	-0.296296669
9.420568156	5.096551217	-0.298806471
8.155109178	3.812677114	-0.824189405
8.1685752	3.788477514	-0.824371736
8.182873153	3.764647568	-0.824645261
8.198914742	3.741592362	-0.825101118
8.210355179	3.716420819	-0.825101118
8.211725143	3.686727771	-0.824098211
8.233003388	3.665972893	-0.825101117
8.22508141	3.632249095	-0.823186497
8.232537761	3.60539995	-0.822821836
8.236253182	3.576952299	-0.822092454
8.242615386	3.549697772	-0.821636598
8.250719336	3.52321962	-0.821363073
8.257821315	3.496337181	-0.820998411
8.21249825	3.447473577	-0.81543694
8.20740628	3.415757101	-0.81388704
8.214165009	3.389041761	-0.81352232
8.210697836	3.358170364	-0.812154751
8.224653686	3.33446112	-0.812519471
8.243160819	3.31255437	-0.813339989
8.241257767	3.282458941	-0.812154751
8.232764222	3.249846812	-0.810331326
8.246404861	3.226024973	-0.810696045
8.271119918	3.206469437	-0.812154751
8.270692665	3.17715069	-0.811151902
7.184801039	2.027592584	-0.817069064
7.186200011	2.004205247	-0.816525053
7.171231944	1.976338406	-0.81413151
7.201240034	1.960857305	-0.816851448
7.19186273	1.934623299	-0.815110694
7.154531725	1.901062339	-0.810214828
7.169945512	1.881626966	-0.811302792
7.203590141	1.866853032	-0.814457904
7.18617116	1.838829699	-0.811846745
7.192742263	1.817017634	-0.811955582
7.194425237	1.793979968	-0.81152035
7.173832697	1.765485474	-0.808582853
7.205297353	1.749802027	-0.81152035
7.571914341	2.720268921	-0.815978455
7.216431992	1.729078024	-0.81217314
7.57647517	2.69569184	-0.815574872
7.21880039	1.706244224	-0.811846745
7.565942565	2.665822336	-0.813556838
7.241427151	1.688151701	-0.813805115
7.589115089	2.647841566	-0.815171288
7.275635745	1.672608788	-0.817069064
7.60754727	2.62811961	-0.816281187
7.296244881	1.653795563	-0.818809819
7.59298174	2.597040092	-0.813859569
7.297403767	1.630536142	-0.818374645
7.648972751	2.590006254	-0.819005476
7.299459047	1.607498993	-0.818048249
7.637073494	2.559887511	-0.816886591
7.29172766	1.582356435	-0.816633832
7.647723766	2.537385021	-0.817189263
7.299464336	1.560601746	-0.816960227
7.636567702	2.507702282	-0.815171288
7.325617835	1.54270663	-0.819353771
7.631924661	2.480264451	-0.813859569
7.324476163	1.519013464	-0.818700981
7.648022509	2.459579552	-0.814767646
7.342737418	1.499319457	-0.820224177
7.646051953	2.433087439	-0.813758659
7.66391916	2.412904785	-0.814868557
7.657037473	2.38494272	-0.813355075
7.686186468	2.36817792	-0.815675782
7.720062738	2.352706716	-0.818500982
7.697715051	2.320110556	-0.815373051
7.68286745	2.289947146	-0.813052344
7.688902372	2.26608435	-0.812951492
7.748352985	2.257792354	-0.818500982
7.760023479	2.235387085	-0.819005476
6.857527984	1.39845193	-0.832434661
6.869574772	1.37897018	-0.833379514
6.873772767	1.357888199	-0.833379513
6.875957021	1.336414414	-0.8331433
6.861493406	1.311770167	-0.830899245
6.839136176	1.285759567	-0.827710277
6.832307571	1.262786084	-0.826411075
6.826379183	1.24004412	-0.825230008
6.825263938	1.218222824	-0.824639446
6.82994746	1.197449026	-0.824757524
6.839460339	1.177500278	-0.825466221
6.87143506	1.161310321	-0.828891402
6.895537628	1.143635486	-0.831371671
6.886272516	1.120401913	-0.829836256
6.868104329	1.095827818	-0.827237851
6.889093011	1.077513625	-0.829363829
6.879606507	1.054417448	-0.827828413
6.889683157	1.034338076	-0.828655131
6.908543103	1.015506555	-0.830544896
6.90376285	0.993175491	-0.829600042
6.906777412	0.971990406	-0.829600042
6.897922023	0.949171755	-0.828182703
6.901785748	0.928137142	-0.828300839
6.906569727	0.907217037	-0.828537052
6.893561917	0.884002815	-0.826647288
6.935654032	0.867780811	-0.831371671
6.927441217	0.845175564	-0.830072469
6.926057149	0.823449593	-0.829600042
6.923619232	0.801625801	-0.82900948
6.925058918	0.780269469	-0.828891402
6.933342609	0.75966896	-0.829600042
6.920280142	0.6938427	-0.827237851
6.513451902	0.812487474	-0.844236019
6.506068065	0.791303164	-0.842960302
6.503540298	0.77075548	-0.842322472
6.494051145	0.749434772	-0.840791706
6.540673289	0.734488522	-0.84653217
6.545853476	0.714741513	-0.84691489
6.565768847	0.696539132	-0.849211099
6.549129366	0.674461822	-0.846787336
6.580775332	0.657323614	-0.850614312
6.577824818	0.636653197	-0.849976483
6.593572482	0.617765034	-0.851762418
6.602351136	0.598159778	-0.852655413
6.619964115	0.579284568	-0.854696456
6.624674799	0.559222392	-0.855079176
6.625370956	0.538815165	-0.854951564
6.620071327	0.517944686	-0.854058627
6.601848423	0.496145614	-0.851507309
6.571682622	0.473607668	-0.847425165
6.554304606	0.45214688	-0.845001402
6.557640363	0.432166887	-0.84525651
6.546067295	0.411237872	-0.843598132
6.553238187	0.391507772	-0.844363572
6.531632877	0.370110316	-0.841429534
6.573344357	0.352245796	-0.846659781
6.529818778	0.329825858	-0.840919259
6.536744446	0.310073089	-0.841684643
6.512893582	0.288918277	-0.838495496
6.50383942	0.268526495	-0.837219838
6.486792482	0.247890005	-0.834923628
6.47661912	0.227604461	-0.833520415
6.476295753	0.207701614	-0.833392803
6.479876697	0.187917886	-0.833775524
6.523057029	0.169142531	-0.83926088
6.505697132	0.14872126	-0.836964671
6.484306499	0.128329614	-0.834158244
6.46582788	0.108120357	-0.831734482
6.473071258	0.088377752	-0.832627419
6.492155426	0.06871769	-0.835051182
6.508204495	0.04891899	-0.837092283
6.524192975	0.029022464	-0.839133325
6.514333037	0.008992693	-0.837857666
6.50242839	-0.010972957	-0.836326841
6.491454023	-0.030870193	-0.834923628
6.501246837	-0.050863142	-0.836199287
6.473727459	-0.110240905	-0.832754972
6.057104354	-0.031275819	-0.838887637
6.080752331	-0.05005429	-0.842180078
6.085522293	-0.0687655	-0.842866008
6.099148996	-0.087634534	-0.844786647
6.087957247	-0.106156077	-0.843277578
6.109390187	-0.12527995	-0.846295659
6.11788984	-0.144232817	-0.847530311
6.122369247	-0.163133472	-0.84821624
6.117879315	-0.18179819	-0.847667519
6.110362865	-0.200339508	-0.846707229
6.108729598	-0.21904939	-0.84657002
6.108028992	-0.23778969	-0.84657002
6.122115551	-0.257151274	-0.84862781
6.12822459	-0.276244696	-0.8495881
6.129327282	-0.295139816	-0.849862462
6.131360727	-0.314094966	-0.850274031
5.593907992	-0.909077763	-0.831719351
6.088826554	-0.330648359	-0.84451223
5.574498629	-0.923486401	-0.829250942
6.064049285	-0.347965154	-0.841219788
5.608711935	-0.946842879	-0.834768604
6.034279497	-0.36483416	-0.837241415
5.58237879	-0.960021145	-0.83128376
6.013361202	-0.382089102	-0.834497754
5.59694916	-0.980215408	-0.833897364
6.016114023	-0.40079941	-0.835046475
5.573460717	-0.993734911	-0.830848168
6.017820151	-0.419461321	-0.835458044
5.56551854	-1.009946048	-0.830122125
6.019469023	-0.438137487	-0.835869614
5.553637157	-1.025399378	-0.828815293
6.015133554	-0.456378074	-0.835458045
5.552409689	-1.042798102	-0.829105687
5.997905325	-0.473582598	-0.833263045
5.549184692	-1.059827775	-0.829105688
5.983590058	-0.490928705	-0.831479672
5.550763295	-1.077790402	-0.829831731
5.984030003	-0.50945185	-0.831754034
5.542577166	-1.093856916	-0.829105688
5.971584818	-0.526850612	-0.830244963
5.537254862	-1.110467054	-0.828815293
5.968953858	-0.545078598	-0.830107812
5.528974676	-1.126462346	-0.828089308
5.973170718	-0.563947163	-0.830930894
5.521617108	-1.14261766	-0.827508462
5.972397916	-0.582366082	-0.831068102
5.514212748	-1.158738565	-0.826927674
5.975511298	-0.601182165	-0.831754033
5.511599107	-1.175856825	-0.82707287
5.967727005	-0.61889886	-0.830930893
5.505064846	-1.192132447	-0.826637279
5.9687551	-0.637520318	-0.831342463
5.500415458	-1.208803784	-0.826492083
5.982525197	-0.657560755	-0.833537464
5.502475102	-1.226965176	-0.827363265
5.979495328	-0.675800568	-0.833400254
5.492894608	-1.242530971	-0.826492082
5.976409627	-0.694027903	-0.833263044
5.501593121	-1.262253425	-0.828379702
5.950646464	-0.709545295	-0.829970603
5.480349051	-1.275090308	-0.825766039
5.973021877	-0.7308057	-0.833400253
5.479299921	-1.292579289	-0.826201688
5.985494294	-0.750976941	-0.835458044
5.494554257	-1.313985813	-0.829105688
5.975302598	-0.768326017	-0.834360544
5.475111944	-1.32710761	-0.826782476
5.99943312	-0.790146631	-0.838064556
5.474857961	-1.344842782	-0.827363264
5.957714294	-0.803254722	-0.832577115
5.491828693	-1.366890325	-0.830557715
5.978771989	-0.824777742	-0.835869614
5.489528452	-1.384216446	-0.830848169
5.969347347	-0.842147822	-0.834909265
5.479503852	-1.399582507	-0.829976928
5.963794577	-0.860033439	-0.834497754
5.45890054	-1.412174205	-0.827508462
5.966027558	-0.879047988	-0.835183683
5.449756979	-1.427661604	-0.826782477
5.980933869	-0.900000489	-0.837652985
5.434831689	-1.441584257	-0.825185251
5.93604523	-0.911878272	-0.831754033
5.399805724	-1.450040094	-0.820538771
5.945941318	-0.932079757	-0.833537463
5.401060309	-1.468156777	-0.821410012
5.924469578	-0.947345598	-0.830930894
5.402254254	-1.486294805	-0.822281194
5.917624769	-0.964879498	-0.830382173
5.411013137	-1.506577064	-0.824314011
5.923430876	-0.984491677	-0.831616824
5.413031842	-1.525048907	-0.825330448
5.921359105	-1.002825211	-0.831754032
5.412133172	-1.54273363	-0.825911235
5.919231016	-1.021155402	-0.831891243
5.407374893	-1.559330481	-0.825911236
5.916070045	-1.039310473	-0.831891242
5.424411323	-1.582285146	-0.829250943
5.906028261	-1.056235189	-0.830930894
5.407195019	-1.595279911	-0.827363265
5.910556182	-1.075768687	-0.832028393
5.382364967	-1.605920924	-0.82431401
5.908201859	-1.094077322	-0.832165602
5.406776841	-1.63128564	-0.828815293
5.90189736	-1.11164819	-0.831754033
5.379980604	-1.641225789	-0.825475644
5.898459073	-1.129749678	-0.831754033
5.411792804	-1.6690959	-0.831138562
5.914410837	-1.151627023	-0.834497753
5.454819164	-1.700710432	-0.838543844
5.888501007	-1.165343809	-0.831342463
5.465617911	-1.722493235	-0.84101231
5.89266667	-1.184966253	-0.832439963
5.462192985	-1.739854029	-0.841302704
5.887062833	-1.202642645	-0.832165603
5.459654876	-1.757513036	-0.841738295
5.87558621	-1.21908836	-0.831068103
5.448592247	-1.772418378	-0.840867114
5.862125882	-1.235066467	-0.829696243
5.436549141	-1.786963422	-0.839850675
5.855403202	-1.252423871	-0.829284673
5.414139967	-1.798021199	-0.837237071
5.850565396	-1.270171979	-0.829147522
5.378581429	-1.80455232	-0.83259059
5.356152971	-1.815328572	-0.829976927
5.341197874	-1.828547873	-0.828524899
5.336498005	-1.845249134	-0.828670096
5.331745575	-1.861938807	-0.828815292
5.332540077	-1.880591014	-0.829831731
5.34352257	-1.902916758	-0.832445394
5.302279836	-1.906579803	-0.826927674
5.321515674	-1.93195419	-0.830848168
5.321137174	-1.950314185	-0.83171935
5.321624015	-1.969033362	-0.832735787
5.319265449	-1.98673545	-0.833316576
5.311293909	-2.00234734	-0.833026183
5.29587834	-2.015113958	-0.831574153
5.286900426	-2.030287908	-0.831138562
5.120882631	-1.754958317	-0.846241027
5.277878994	-2.045425876	-0.830702913
5.112673169	-1.769691135	-0.845777718
5.27802892	-2.064131092	-0.83171935
5.274432682	-2.081403687	-0.832154942
5.246880015	-2.089157453	-0.828815293
5.231264835	-2.101556606	-0.827363264
5.227543743	-2.118710828	-0.827798914
5.231092855	-2.138857722	-0.829396139
5.23456744	-2.159046157	-0.830993364
5.225178728	-2.173955343	-0.830557716
5.311012357	-2.208555774	0.636237126
5.349132584	-2.227145855	0.427435384
5.220309337	-2.190741422	-0.830848169
5.339958126	-2.239833121	0.640524905
5.400202947	-2.267873959	0.432070241
5.219030389	-2.209060829	-0.831719351
5.331693384	-2.258369724	0.427141116
5.228607449	-2.232054265	-0.834333013
5.332993602	-2.278242543	0.427803234
5.228096395	-2.250823709	-0.835349393
5.336053692	-2.298933924	0.428612486
5.226611967	-2.269216772	-0.836220634
5.357659188	-2.324977577	0.646022004
5.210561924	-2.281272981	-0.834768605
5.375086257	-2.35216236	0.648990492
5.189961752	-2.291254314	-0.832590591
5.463325407	-2.410774137	0.660534422
5.40954129	-2.389861521	0.436263667
5.376884582	-2.379809896	0.004002389
5.193754506	-2.311994379	-0.834333013
5.450454905	-2.425099752	0.659874778
5.373031918	-2.393460548	0.433909461
5.183929113	-2.326702305	-0.833897365
5.372941791	-2.41320228	0.434497998
5.436960156	-2.446404201	0.004058204
5.19028742	-2.348714038	-0.836075436
5.375506074	-2.434200331	0.43530728
5.482105891	-2.484547884	0.223751497
5.429428689	-2.463073229	0.004058204
5.16595442	-2.356823922	-0.833316576
5.341261238	-2.205797728	0.581589674
5.378899426	-2.455650773	0.436190085
5.44991674	-2.490141988	0.222748455
5.385470528	-2.463081923	0.004030977
5.148811963	-2.368113942	-0.831719351
5.402223425	-2.483499437	0.657675962
5.313344277	-2.213374206	0.579286551
5.378587604	-2.475476976	0.43677865
5.395961257	-2.485527833	0.220853832
5.357001799	-2.469962424	0.004015321
5.289899229	-2.441710551	-0.209565392
5.311668669	-2.455133592	-0.42448003
5.141522235	-2.383899204	-0.83171935
5.395480474	-2.500479397	0.657785874
5.345054717	-2.24585261	0.583492255
5.353779077	-2.483991757	0.435380832
5.320233766	-2.236297407	0.370370085
5.342992677	-2.48102728	0.218996358
5.31856655	-2.472055117	0.003992179
5.257012984	-2.446123406	-0.208558907
5.301399124	-2.470154375	-0.42426298
5.136873541	-2.40091864	-0.832154942
5.40039079	-2.522910433	0.659325045
5.352457008	-2.50336281	0.435895817
5.313348031	-2.252609152	0.370370085
5.315444135	-2.488087282	0.218179074
5.290130423	-2.478602308	0.003976523
5.194292794	-2.436353335	-0.206366201
5.290184807	-2.484711081	-0.42397357
5.144699221	-2.423835708	-0.834623408
5.398020597	-2.542007541	0.659984748
5.361890801	-2.527852351	0.437293635
5.366972799	-2.29479415	0.374597037
5.253560305	-2.478797851	0.215950099
5.258086873	-2.483290188	0.003958145
5.152462206	-2.436045751	-0.205000242
5.221238229	-2.471908425	-0.419053743
5.144388463	-2.443003519	-0.835785042
5.379421567	-2.553441997	0.6586654
5.326899197	-2.296133586	0.583792662
5.342400449	-2.538725931	0.436337248
5.365405437	-2.313619928	0.374981279
5.227881612	-2.486319918	0.215207111
5.211618369	-2.480927918	0.003928876
5.110682489	-2.435504874	-0.203634297
5.191126069	-2.477176822	-0.41724498
5.133299583	-2.457065966	-0.835204196
5.301307308	-2.539164532	0.433615194
5.18148085	-2.48377298	0.213609678
5.160706062	-2.476140828	0.003896203
5.053640964	-2.427375026	-0.201657271
5.155638361	-2.47968995	-0.415002117
5.134648356	-2.477102346	-0.836656224
5.235960413	-2.524826957	0.858688217
5.316355188	-2.330373456	0.584193205
5.245892201	-2.532437836	0.429716037
5.385837978	-2.361727103	0.377414996
5.115349362	-2.47140071	0.211194959
5.129678186	-2.480642892	0.003878505
5.026381099	-2.433288164	-0.200866451
5.124671861	-2.484183995	-0.413121024
5.127914565	-2.493276243	-0.836801422
5.253992491	-2.553418904	0.862926165
5.41201146	-2.63021563	0.665591816
5.29371012	-2.339834684	0.582490897
5.120619812	-2.491362784	0.420078502
5.355749614	-2.368150131	0.375813867
5.075398458	-2.471333358	0.20985758
5.087884597	-2.479720596	0.003852639
5.003623369	-2.441247791	-0.200255369
5.091934224	-2.487635812	-0.411095211
5.107802457	-2.502901629	-0.834768605
5.335185181	-2.613142665	0.657126229
5.409195095	-2.410743623	0.596009289
5.138920066	-2.519793802	0.422211991
5.39676659	-2.406107682	0.379208232
5.045365126	-2.47588694	0.208928836
5.0263989	-2.468866166	0.003811799
5.374840044	-2.401056832	-0.052811522
4.955753802	-2.436743988	-0.198637803
5.067276905	-2.494875286	-0.409720549
5.092115697	-2.514617609	-0.833461774
5.303969639	-2.618060133	0.654267709
5.102554114	-2.521410021	0.419857786
5.36114282	-2.40996956	0.377222861
5.025204548	-2.485152526	0.208408755
4.995499285	-2.472741142	0.003794101
5.365625152	-2.416714006	-0.052793581
5.006885246	-2.484255201	-0.405451873
5.114493241	-2.545215525	-0.838398647
5.299472538	-2.636090774	0.654707473
5.090331208	-2.534829784	0.419489966
5.368266876	-2.432997059	0.378247554
5.472475691	-2.483681194	0.165767119
5.362737748	-2.43523135	-0.052838437
4.952852035	-2.476410231	-0.401689658
5.115504961	-2.565329848	-0.839850676
5.408498808	-2.470347636	0.598412548
5.324269992	-2.200453396	0.525717214
5.368946332	-2.453187956	0.378823961
5.409382053	-2.475088407	0.16408518
5.363424092	-2.455418685	-0.052919175
4.928307696	-2.483066981	-0.400314996
5.100545794	-2.577442036	-0.838689099
4.86792543	-2.240816392	-0.837746231
5.385530652	-2.479854419	0.59671024
5.329443416	-2.221759115	0.526898578
5.312449047	-2.4471019	0.375365551
5.377255025	-2.480367642	0.163340718
5.324996291	-2.457614827	-0.052614164
5.352196865	-2.473115231	-0.267012027
4.880646598	-2.477857551	-0.397059212
5.291505895	-2.44809823	-0.478831491
5.076743974	-2.584997246	-0.836075436
4.868197722	-2.259067554	-0.838981836
5.374287291	-2.494689493	0.596309697
5.316175985	-2.235397116	0.526262419
5.272331923	-2.448257918	0.373059953
5.34605339	-2.485894707	0.162623824
5.292952238	-2.462551227	-0.052371953
5.266706518	-2.453248253	-0.263121304
4.851711195	-2.481918001	-0.395322809
5.276744547	-2.46095074	-0.478176675
5.067909407	-2.60010858	-0.83593024
4.854979175	-2.271062001	-0.837900666
5.377422799	-2.516226147	0.597511326
5.334390834	-2.496998589	0.377991403
5.277758441	-2.473859025	0.160776452
5.256401444	-2.465191063	-0.052084882
5.159686822	-2.422690226	-0.258144793
5.265561708	-2.475431998	-0.477849267
5.055514111	-2.613372803	-0.835204197
4.835478128	-2.280047011	-0.83573833
5.36337866	-2.52974085	0.596810376
5.271228603	-2.254658653	0.523172633
5.248185185	-2.476303781	0.372419502
5.240318041	-2.475947143	0.159866557
5.222596606	-2.468912245	-0.051824726
5.148618051	-2.436799091	-0.257963833
5.2561411	-2.490721147	-0.477685562
5.052737387	-2.631612746	-0.836075436
4.825783068	-2.29359881	-0.835274963
5.371766689	-2.553873406	0.59861282
5.365786996	-2.314603483	0.533259885
5.198206126	-2.472248334	0.369409407
5.192084754	-2.472671209	0.158625782
5.198748449	-2.477180676	-0.051663253
5.099642954	-2.432797571	-0.255882767
5.234984896	-2.500391845	-0.476457796
5.036754942	-2.642964468	-0.834768605
4.845454809	-2.321198826	-0.83990851
5.290371155	-2.533060894	0.808588469
5.363906328	-2.570341651	0.59861282
5.152801685	-2.470066748	0.366719539
5.13400844	-2.464364769	0.157081709
5.162279688	-2.479265612	-0.051376183
5.066946444	-2.436310655	-0.254616019
5.194961037	-2.500877838	-0.473511122
5.036495055	-2.662566361	-0.836075436
4.8276341	-2.330898506	-0.838055103
5.248672319	-2.532918949	0.803399052
5.354219769	-2.348683915	0.533532516
5.147894867	-2.487166198	0.366911675
5.111126361	-2.472703186	0.156612978
5.10964599	-2.473308106	-0.050927639
5.038771619	-2.44182421	-0.253575471
5.161260828	-2.50418732	-0.471137427
5.041401976	-2.684981776	-0.838253451
4.81246491	-2.341807811	-0.836665063
5.195443386	-2.526912047	0.796434367
5.350717601	-2.604512103	0.598913227
5.328774037	-2.357042371	0.531714992
5.099864639	-2.483287815	0.364029671
5.447105068	-2.411656926	0.32575336
5.070271182	-2.472163021	0.155592785
5.072376299	-2.474504256	-0.050631601
4.995350723	-2.439735204	-0.251765843
5.125798069	-2.506438115	-0.468600027
5.044474789	-2.70651712	-0.840141071
4.814128371	-2.360911458	-0.83820954
5.193003639	-2.545455711	0.797253752
5.330196239	-2.614780676	0.597511326
5.333341248	-2.378653171	0.532896357
5.06803336	-2.487052079	0.362300451
5.44150389	-2.429171126	0.325862585
5.049205532	-2.481093947	0.155179203
5.013610629	-2.464906858	-0.050120261
4.932272525	-2.427697378	-0.248960909
5.058187256	-2.492635142	-0.463115982
5.036147654	-2.721980607	-0.840141071
4.803319506	-2.37391911	-0.837591737
5.323040932	-2.63156203	0.597611462
5.276972337	-2.372949406	0.527989104
5.424009771	-2.441345803	0.325261949
4.989000642	-2.471842028	-0.049949817
5.371825478	-2.423045838	-0.107595732
5.026414881	-2.496172968	-0.460905991
5.031248777	-2.739310861	-0.840721917
4.821660942	-2.401417754	-0.842070847
5.394833377	-2.445874758	0.540529981
5.410129456	-2.455086516	0.324879734
5.433594074	-2.468479837	0.107819097
5.32432015	-2.421303481	-0.106792507
4.983082371	-2.493740946	-0.457631938
5.020218525	-2.753306306	-0.840286326
4.830165049	-2.4241763	-0.844850986
5.364661121	-2.452064476	0.538258091
5.353872257	-2.216777487	0.473862135
5.408020197	-2.474165527	0.325207352
5.403269361	-2.474729778	0.107367517
5.308686946	-2.433876602	-0.106628215
4.953160735	-2.497798114	-0.45558565
5.29129282	-2.432499251	-0.533170323
5.004819286	-2.764867689	-0.83912469
4.833285	-2.444334092	-0.846704392
5.395099967	-2.48601575	0.542074874
5.339688422	-2.23011979	0.473210119
5.414004624	-2.497018333	0.326026379
5.379312181	-2.483750737	0.107042374
5.276689977	-2.438826157	-0.106135329
5.321969412	-2.462685261	-0.322415347
4.895717788	-2.487699103	-0.451001964
5.267541929	-2.441184078	-0.531529229
4.991990466	-2.777803759	-0.838398647
4.815199819	-2.453767967	-0.844850986
5.328226183	-2.241490161	0.685395898
5.376609442	-2.497521463	0.540984348
5.34659925	-2.252295099	0.47443267
5.364668637	-2.49425175	0.323514699
5.306401797	-2.469865026	0.10574183
5.251057203	-2.446558176	-0.105770221
5.239283479	-2.443966816	-0.31785884
4.852577398	-2.484538705	-0.44772791
5.260027667	-2.457333185	-0.531529228
4.982581789	-2.792622107	-0.83825345
4.797102053	-2.463113783	-0.842997579
5.327723589	-2.260541558	0.686220112
5.38786148	-2.522873449	0.54289271
5.347002549	-2.271805432	0.475084686
5.308168019	-2.48781626	0.320566206
5.275265535	-2.475091309	0.105272183
5.215471734	-2.449480692	-0.105204312
5.194713848	-2.442609413	-0.31560802
5.254265624	-2.474307578	-0.531711559
4.979160072	-2.810813801	-0.83912469
4.788645266	-2.477365462	-0.842843085
5.387374682	-2.540412716	0.763230879
5.328979908	-2.280392205	0.687279822
5.380096139	-2.539391196	0.542892711
5.340923589	-2.288591666	0.475166195
5.271620022	-2.490441272	0.318818956
5.232397018	-2.474592807	0.104567723
5.176303158	-2.450496698	-0.104565387
5.150202235	-2.441001559	-0.313357199
5.24395106	-2.489134893	-0.531438034
4.992015923	-2.838301894	-0.842754733
4.766128268	-2.484281878	-0.84021744
5.353575803	-2.544580886	0.759544987
5.383958466	-2.323487067	0.695286456
5.34350345	-2.542194512	0.539984719
5.320153617	-2.299036279	0.473943644
5.217977258	-2.484709122	0.316034286
5.201314332	-2.479447645	0.104098076
5.135373464	-2.450434234	-0.103889947
5.143589961	-2.457221101	-0.313412095
5.229103043	-2.501772939	-0.530708651
4.766356685	-2.503026648	-0.841607481
5.308173877	-2.542994479	0.754206855
5.389552762	-2.345541575	0.696934941
5.289882748	-2.536616106	0.53535004
5.303024632	-2.310967517	0.4730471
5.166220226	-2.479535481	0.313358812
5.141412882	-2.470279307	0.103050413
5.114315805	-2.45967761	-0.103616116
5.049661969	-2.431405195	-0.308141912
5.184626589	-2.500069996	-0.526970665
4.974506464	-2.868878955	-0.842754733
4.761274849	-2.519023816	-0.842070846
5.30659932	-2.562286746	0.755096514
5.396880697	-2.36845065	0.698818865
5.382593316	-2.365318271	0.480789952
5.106454554	-2.470154599	0.310191898
5.097814814	-2.468610797	0.102327885
5.089651191	-2.467070517	-0.103269269
5.038585701	-2.445142116	-0.307922328
5.126774688	-2.491588233	-0.52186505
4.740446221	-2.52664885	-0.839754075
5.080901787	-2.477058082	0.309099882
5.056072912	-2.467575191	0.101641486
5.010188768	-2.447564224	-0.101808859
5.012224257	-2.451376379	-0.306769456
5.078862288	-2.487593651	-0.517762344
4.72483781	-2.536973914	-0.838364033
5.398008196	-2.411717228	0.483479553
5.010796532	-2.464541541	0.100882837
4.973055016	-2.448350358	-0.101206442
4.973333279	-2.451291972	-0.30484804
4.982802046	-2.459527033	-0.508736354
4.940218785	-2.910022189	-0.841447902
4.706604204	-2.545816918	-0.836510569
5.201873764	-2.571025102	0.743530529
5.382404996	-2.424582478	0.482746028
5.437832452	-2.453661836	0.051750144
4.90587434	-2.436778148	-0.301169867
4.954725262	-2.464601694	-0.506639402
4.926162052	-2.922136238	-0.84057672
4.710049799	-2.566389823	-0.838518469
5.248120991	-2.613947353	0.751283545
5.169247222	-2.577027587	0.527080314
5.380386262	-2.443557064	0.483235055
5.464304984	-2.485121816	0.271328975
5.40843414	-2.460395706	0.051541963
5.378651453	-2.450813636	-0.164894325
4.922213717	-2.467295906	-0.504086653
4.913776403	-2.935206108	-0.839995873
4.703886441	-2.581778747	-0.838827341
5.402768567	-2.473744583	0.485924684
5.425780581	-2.487718199	0.269793739
5.381772725	-2.468222836	0.051359804
5.269371514	-2.420569635	-0.161771012
4.909287612	-2.479691751	-0.503539602
4.907291388	-2.95179765	-0.840431522
4.689890828	-2.592851769	-0.837746231
5.415967311	-2.499915338	0.487799251
5.383664497	-2.488425456	0.2680779
5.341499849	-2.469615157	0.051047536
5.234708335	-2.424122774	-0.160934416
5.328283568	-2.469602369	-0.379055139
4.879469372	-2.483448901	-0.50126032
4.895673459	-2.965301209	-0.839995872
4.682777194	-2.607708694	-0.837900667
5.41681998	-2.51727738	0.708238485
5.403753824	-2.514417278	0.487391733
5.318957623	-2.478349636	0.265233209
5.31214544	-2.475852738	0.050839355
5.223623177	-2.43847996	-0.160822866
5.302599849	-2.477489409	-0.377766934
4.868282891	-2.496589647	-0.500895601
4.891621272	-2.983398145	-0.840867113
4.67820155	-2.623996098	-0.838518468
5.418963472	-2.538518089	0.709533694
5.377064835	-2.522095798	0.485680156
5.274256776	-2.477243723	0.263381889
5.274657943	-2.47810647	0.050553108
5.168180089	-2.43193702	-0.159344864
5.20017905	-2.449100941	-0.371003834
5.260946221	-2.47996417	-0.589861499
4.885817899	-3.000462503	-0.841447902
4.677871452	-2.642710092	-0.83990851
5.397680269	-2.548770922	0.707767489
5.353083171	-2.530912412	0.484213106
5.25489395	-2.487856199	0.262794902
5.220939237	-2.472450302	0.050110726
5.130890513	-2.433644683	-0.158424599
5.156580726	-2.44792498	-0.368427423
4.880797252	-3.01803948	-0.842173945
4.666306855	-2.655094757	-0.839290708
5.363832244	-2.552942532	0.704352859
5.379483008	-2.563616785	0.487310224
5.216582414	-2.489338323	0.261259665
5.178134699	-2.471656816	0.049772432
5.1089702	-2.442476177	-0.157978413
5.135543792	-2.457272708	-0.367461262
4.875714378	-3.035614084	-0.84289993
4.676140586	-2.679714321	-0.842534213
5.36134659	-2.571963691	0.705059352
5.179211995	-2.491041834	0.259769608
5.161516473	-2.483196374	0.049685689
5.042918924	-2.429934061	-0.156165776
5.109104612	-2.463913559	-0.366108653
4.872246778	-3.054236808	-0.843916368
4.659340353	-2.689109172	-0.840989678
5.134896031	-2.485834345	0.4665268
5.098732	-2.471623262	0.256112148
5.069295558	-2.458009591	0.048870316
4.980590157	-2.418756786	-0.154464689
5.080878563	-2.469543173	-0.36462721
4.86369013	-3.069698361	-0.844061565
4.655339166	-2.705873756	-0.841761974
5.18726012	-2.530857485	0.471987568
5.06599278	-2.474975948	0.254847844
5.02848897	-2.457305916	0.048549371
4.95878047	-2.426994787	-0.154018504
5.053562155	-2.475461652	-0.363210198
4.846733744	-3.079829622	-0.842754733
4.653837328	-2.724136082	-0.842997579
5.31783782	-2.611568816	0.702468934
5.20809223	-2.560832744	0.47459566
5.042243684	-2.482563806	0.254035076
5.002087474	-2.463443801	0.048367215
4.975252139	-2.456056883	-0.358121779
4.833928452	-3.092552048	-0.842173945
4.648862463	-2.74040807	-0.843615382
5.200210949	-2.576798904	0.474595659
4.936422166	-2.455752448	-0.355867412
4.826081534	-3.108439282	-0.842464339
4.647229522	-2.758692304	-0.844850986
5.280386169	-2.633512442	0.699643078
5.13788852	-2.565580016	0.469623947
4.884259655	-2.448524494	-0.352646884
4.822333253	-3.12699899	-0.843480776
4.639592487	-2.773443656	-0.845005423
5.312209829	-2.669766855	0.704941633
4.817688257	-3.145023975	-0.844351959
4.623443208	-2.78307901	-0.843615381
4.812977676	-3.163049957	-0.845223199
4.615727982	-2.797762415	-0.843769817
4.855639327	-2.492500774	-0.553537534
4.602906547	-2.80933661	-0.84299758
4.838248976	-2.502358413	-0.552427636
4.596791112	-2.82499683	-0.843460946
4.800550901	-2.501558196	-0.548997031
4.594823916	-2.843245342	-0.844696551
4.588594984	-2.85889606	-0.845159859
4.578965478	-2.87243513	-0.845005423
4.758024297	-3.253897878	-0.845949185
4.566789894	-2.884359411	-0.84438762
4.746389102	-3.267357868	-0.84565879
4.552083477	-2.894645318	-0.843306452
4.73634245	-3.281904168	-0.84565879
4.561487131	-2.920317114	-0.846704394
4.547523596	-2.931086125	-0.845777719
4.550112732	-2.95255325	-0.847939997
4.546823156	-2.970281307	-0.849021166
4.539340013	-2.985302641	-0.849330096
4.533454963	-3.001396672	-0.849947898
4.526692261	-3.016934772	-0.850411265
4.516594297	-3.030257774	-0.85025677
4.514645206	-3.049077104	-0.851646869
4.489745663	-3.052359245	-0.848712294
4.473837088	-3.061655318	-0.847476689
4.461982304	-3.073685172	-0.847013324
4.451719396	-3.086796809	-0.846858829
4.45357073	-3.108356409	-0.849021166
4.41895184	-3.104398867	-0.844233184
4.419893747	-3.125356868	-0.846241027
4.425578461	-3.149787288	-0.84917566
4.427138715	-3.17140494	-0.851337939
4.430210727	-3.19421764	-0.853809206
4.408395825	-3.199089927	-0.851492433
4.402549429	-3.215513448	-0.852264671
4.385499433	-3.223738587	-0.850874574
4.380353851	-3.240703542	-0.851801305
4.379900513	-3.261207698	-0.853654713
4.374618411	-3.278184568	-0.854581445
4.360596522	-3.288615779	-0.853809207
4.347338686	-3.299589041	-0.853191404
4.334839657	-3.311111744	-0.852728038
4.330144222	-3.328610304	-0.853809207
4.339447929	-3.3569928	-0.857670455
4.334585898	-3.374538607	-0.858751624
4.332767671	-3.394523572	-0.860450595
4.320781039	-3.406576968	-0.860141722
4.314179466	-3.422887244	-0.860913961
4.275862638	-3.413914573	-0.855353683
4.290015202	-3.446818849	-0.860296159
4.279420057	-3.459964338	-0.860296159
4.268784982	-3.473077093	-0.860296159
4.266519004	-3.493041926	-0.86199513
4.258070007	-3.507999657	-0.862458496
4.251851299	-3.5248301	-0.863385171
4.241776052	-3.538490944	-0.863539665
4.227872877	-3.548946902	-0.862921862
4.209417447	-3.555525884	-0.861377328
4.201500709	-3.570982803	-0.86199513
4.197282909	-3.589635432	-0.86338517
4.179510164	-3.596695388	-0.861995129
4.166215499	-3.607560939	-0.861531764
4.148423884	-3.614484437	-0.860141723
4.146230188	-3.635010391	-0.86199513
4.148395351	-3.65947833	-0.864775269
4.139365429	-3.674155812	-0.865238636
4.122178346	-3.681572939	-0.864002972
4.122621922	-3.704768351	-0.866474239
4.109037986	-3.715411004	-0.866010873
4.087388906	-3.718691512	-0.863848537
4.082519807	-3.737218156	-0.865238636
4.077574971	-3.755749789	-0.866628675
4.073280128	-3.774957815	-0.868173211
4.06890525	-3.794174653	-0.869717687
4.059407297	-3.808667943	-0.870181053
4.049140271	-3.822460521	-0.870489983
4.053154102	-3.849834615	-0.873887925
4.05060957	-3.871125469	-0.875895769
4.026606948	-3.871892544	-0.873270123
4.022519955	-3.891784618	-0.874969094
4.013392845	-3.906863752	-0.875586895
4.009152403	-3.926763016	-0.877285867
3.999197118	-3.941124787	-0.877749174
3.97796658	-3.944332409	-0.875741332
3.965147483	-3.95582034	-0.875586896
3.954387398	-3.969366337	-0.875895768
3.936629762	-3.975862804	-0.874660163
3.938273235	-4.002005947	-0.877749175
1.424360663	-9.520886674	0.710160719
1.359281018	-9.154652389	-0.332896253
1.390230259	-9.491661827	0.707659409
1.329176132	-9.144933405	-0.33239301
1.299847265	-9.140064296	-0.332069477
1.475956785	-10.49371408	1.565396289
1.40222083	-9.969467985	1.113607446
1.272625858	-9.149948019	-0.332285156
1.444698981	-10.50505254	1.566419223
1.378940853	-10.02689532	1.119544308
1.714317914	-9.818109104	1.003061985
1.615499875	-9.259796255	0.603236343
1.244682835	-9.154799647	-0.332321098
1.412067837	-10.5064942	1.565980772
1.345921549	-10.01433198	1.117675344
1.684860911	-9.827245439	1.003462529
1.590622106	-9.285365182	0.604581262
1.375578551	-10.47840863	1.561158397
1.317002875	-10.03221132	1.119214457
1.656024392	-9.840217883	1.004263616
1.561962064	-9.289217473	0.604517247
1.344808037	-10.49337329	1.562765816
1.285586473	-10.0312751	1.118664782
1.626961965	-9.852123597	1.004964566
1.533293314	-9.292980555	0.604453171
1.31850018	-10.54456753	1.569780329
1.249872037	-9.99572189	1.114267033
1.596728417	-9.857068875	1.004964566
1.505094481	-9.299611771	0.604581262
1.281593957	-10.51124757	1.564227203
1.565075071	-9.85307675	1.004063343
1.476713003	-9.305170541	0.604645336
1.243737448	-10.46797742	1.557212692
1.531471327	-9.83620378	1.001860356
1.448465024	-9.311630017	0.604773427
1.202974898	-10.39705781	1.546106439
1.571468672	-10.27922978	1.433499956
1.500086756	-9.832986907	1.001059269
1.315290407	-11.75350775	3.614935309
1.180147788	-10.48131004	1.558089476
1.539778335	-10.28302301	1.433363343
1.467559898	-9.821797751	0.999457096
1.283983128	-11.80122044	3.628381165
1.148201438	-10.48684737	1.558381776
1.507217382	-10.28083808	1.432407404
1.438284205	-9.832161117	1.000057911
1.247570381	-11.80320197	3.627796562
1.250352307	-11.79211102	3.128647747
1.112883172	-10.46080994	1.553997736
1.475669075	-10.28541322	1.432407403
1.400076124	-9.780386362	0.99435017
1.209888792	-11.79270411	3.623412045
1.217138863	-11.82474624	3.136300983
1.082309221	-10.47893474	1.556189755
1.442592467	-10.27910165	1.430905248
1.366476514	-9.759016135	0.991746639
1.170673714	-11.76590835	3.614058405
1.177493504	-11.79475027	3.127372207
1.052226083	-10.50287738	1.559258561
1.409029914	-10.26875742	1.428856756
1.335180343	-9.753304723	0.990745281
1.135304939	-11.77705968	3.616396814
1.143350385	-11.81948034	3.13298458
1.376334205	-10.2641948	1.427627707
1.306834435	-9.769189705	0.991946911
1.097480104	-11.76239639	3.610842858
1.107083326	-11.82293244	3.13298458
1.344323062	-10.26444008	1.42708149
1.058810797	-11.73713435	3.602073821
1.3137053	-10.2753946	1.428037429
1.496811271	-9.144766792	-0.169188542
1.021800766	-11.72889483	3.598566206
1.047031454	-11.93179538	2.685443562
1.281438933	-10.27347877	1.427218103
0.98629271	-11.73769215	3.600320013
1.007127688	-11.89605983	2.676692647
1.248718311	-10.26752743	1.425852441
0.969198383	-11.88158782	2.672754923
1.217678471	-10.27524553	1.426398659
0.928847871	-11.83489348	2.661597411
0.931386139	-11.86723469	2.209234278
1.184445346	-10.26417191	1.424350286
0.891140634	-11.8191997	2.657440584
0.895638895	-11.8788596	2.210876504
1.15416567	-10.27858568	1.425852442
1.343190365	-9.077634423	-0.167545584
1.295228781	-11.78667006	3.484491573
0.858113002	-11.86664721	2.667504232
0.859687253	-11.88841642	2.212153715
1.320780214	-9.119313912	-0.168239278
1.257227987	-11.77341602	3.479416596
0.822309145	-11.87798521	2.66947333
0.82266682	-11.88315072	2.210694113
1.395177987	-9.76484883	0.900125995
1.297706033	-9.15797165	-0.16887821
1.220211171	-11.7686291	3.476879108
1.223258815	-11.79802241	3.000921781
0.779681306	-11.78698199	2.648471038
0.786530421	-11.89052449	2.211606306
0.759237122	-11.46879532	1.271374863
1.365075447	-9.768096816	0.900035098
1.184483862	-11.77613543	3.478006827
1.187542412	-11.80654298	3.002148207
0.744989678	-11.81268985	2.653721491
0.747076578	-11.84578039	2.202847521
1.400925563	-10.22609318	1.32259466
1.329708818	-9.732771022	0.89640005
1.662659131	-9.574266931	0.794660472
1.14695329	-11.76538978	3.473777756
1.150938633	-11.80627108	3.001167114
0.709271209	-11.82368675	2.65569059
0.711613889	-11.86273849	2.205584803
1.375599841	-10.27556672	1.328441162
1.301819428	-9.751611507	0.897763208
1.631602703	-9.569497071	0.793845437
1.53678732	-9.041967827	0.414556702
1.110311199	-11.7631227	3.472086178
1.114712047	-11.80974658	3.001167114
0.67388035	-11.84139412	2.659190815
1.332366327	-10.19023882	1.31687512
1.274985701	-9.779259615	0.899944202
1.599439773	-9.557746747	0.792459868
1.072908798	-11.75214133	3.467857107
1.073206708	-11.78493664	2.529365829
1.307375593	-10.24347357	1.323230047
1.654254124	-10.04438007	1.207007887
1.56849468	-9.552773668	0.791644834
1.038281831	-11.77162548	3.472650038
1.036017591	-11.77648416	2.526857665
1.278394145	-10.26712196	1.325772065
1.625172605	-10.06019185	1.208303097
1.536485874	-9.540813451	0.790259265
0.57356943	-11.45872851	0.426513505
1.001673844	-11.76901912	3.470958456
0.999469465	-11.77473547	2.52581244
1.248203853	-10.28182722	1.327170152
1.591659583	-10.04845622	1.206301452
1.504098918	-9.525792376	0.788629197
0.539409192	-11.40522667	0.842290507
0.539068436	-11.47440943	0.427033615
0.968072133	-11.80263656	3.479980456
0.962543145	-11.76799948	2.523722224
1.217469418	-10.29250365	1.32805993
1.558233924	-10.0366104	1.204299809
0.506616573	-11.34443448	1.256092828
1.474409772	-9.527407632	0.78838464
0.505297084	-11.42675397	0.843761907
0.503994351	-11.47900434	0.427145046
0.502394045	-11.53906584	0.007861835
0.931178091	-11.79694299	3.477442968
0.927278952	-11.78162106	2.526021532
1.527584031	-10.04232597	1.204417471
1.444276783	-9.525973474	0.787895643
0.470483909	-11.43422932	0.84420328
0.468489534	-11.47350696	0.42688502
0.466586016	-11.53056073	0.007855028
0.892677554	-11.80488851	2.530411056
0.89766235	-11.89289252	2.09313118
1.564025488	-10.46084586	1.649713839
1.496182135	-10.04303614	1.203946592
1.414751974	-9.52838783	0.787732624
0.434718995	-11.41768017	0.842879043
0.43332482	-11.4758893	0.426922155
0.431133825	-11.52993916	0.007853667
1.307431958	-11.79038896	3.358806606
0.854617103	-11.78221218	2.524976542
0.860744535	-11.88969576	2.092093823
1.533069599	-10.4734155	1.6509467
1.46550679	-10.04856184	1.204064253
1.382932235	-9.514929668	0.786265574
0.399792654	-11.42195017	0.843099759
0.397907376	-11.471172	0.426699263
0.39538113	-11.52021426	0.007846179
1.275480932	-11.83356707	3.36997628
0.818804503	-11.78965616	2.526021531
0.8240591	-11.8893328	2.091575262
1.50135062	-10.48100452	1.651408996
1.434110192	-10.04907833	1.203593257
0.788228386	-11.47984291	1.158072447
0.364430442	-11.4131553	0.842364059
1.232959168	-11.7780937	3.353085516
0.790754318	-11.87374506	3.010732706
0.781853371	-11.78040364	2.523513367
0.787839632	-11.8957366	2.092266677
1.468776987	-10.48262588	1.650946702
1.40135135	-10.03966177	1.201944831
1.297248096	-9.370273061	0.08205772
1.262410102	-9.159818682	-0.257952404
1.19565176	-11.770334	3.34981632
0.751249859	-11.82773946	2.998469166
1.190189244	-11.8046661	2.879755136
0.746387381	-11.79348278	2.52581244
0.751464449	-11.90006372	2.092612384
1.435939378	-10.48218773	1.650176133
1.369066676	-10.03309046	1.200649622
1.267421762	-9.366281516	0.081988325
1.160478334	-11.78352216	3.352540728
1.153589382	-11.80439304	2.878811712
0.709085297	-11.7771701	2.5218411
0.714243324	-11.89051437	2.09053814
1.403380432	-10.48360586	1.649713839
1.337360477	-10.03035336	1.199825409
1.123407826	-11.7774484	3.349816319
1.117185515	-11.80594191	2.878339883
0.672615436	-11.77343204	2.520587017
1.371722895	-10.4917812	1.650330271
1.304145272	-10.01569863	1.197588326
0.636966947	-11.78422936	2.522468143
1.339277921	-10.49397934	1.650021995
1.272534928	-10.01275736	1.196764114
1.042460669	-11.83641228	2.419194572
1.306832409	-10.49607777	1.649713838
1.237778467	-9.984093069	1.192878488
0.568066251	-11.47057424	0.316782833
1.007220817	-11.85224732	2.421788324
1.274029441	-10.49513346	1.64894327
0.533707211	-11.49023698	0.317279131
1.151536743	-9.61794551	0.084026759
0.998218955	-12.02431367	3.416289566
0.979315015	-11.90495977	2.8993324
0.970294092	-11.84844567	2.420391671
1.241940826	-10.49997457	1.649097408
0.501577545	-11.38937063	1.147357917
