x	y	z
6.149476573	2.148772965	-0.774797326
5.728317772	2.238980037	-0.791040721
6.148532562	2.127299167	-0.773852414
5.729610432	2.219245921	-0.790275279
6.679995128	2.018598417	-0.763758312
6.153151702	2.107782058	-0.773616202
5.737318332	2.202012612	-0.790402892
6.684251804	1.99752592	-0.763540696
6.157708274	2.088256578	-0.773379987
5.747755051	2.18581072	-0.790913167
6.689395311	1.976727772	-0.763431917
6.163144508	2.069039108	-0.773261851
5.752577842	2.16746714	-0.790658001
6.699245115	1.957310706	-0.763867091
6.169463267	2.050121295	-0.773261852
5.750837328	2.146686461	-0.789509895
6.69089301	1.932610792	-0.762235116
6.175724226	2.031183905	-0.773261852
5.73786098	2.121809048	-0.786831024
6.70252602	1.913711875	-0.762887906
6.18381519	2.012842279	-0.773498124
5.741549497	2.103172013	-0.786448303
6.698798594	1.890439912	-0.761799942
6.185235104	1.992338867	-0.77290756
5.740516257	2.082841018	-0.785427753
6.710311759	1.871481678	-0.762452732
6.188480253	1.972448629	-0.772553212
5.747812772	2.065555103	-0.785555366
6.689188678	1.843490859	-0.759406399
6.191661413	1.952557498	-0.772198921
5.752253872	2.047246135	-0.785300199
6.705363245	1.825832876	-0.760603141
6.191935202	1.931778087	-0.771490223
5.756636689	2.028929525	-0.78504509
6.713813451	1.806027231	-0.760929537
6.191190852	1.910722645	-0.770663447
5.760024713	2.010278404	-0.784662369
6.713557967	1.78388938	-0.760276746
6.194174325	1.890849577	-0.770309156
5.767102869	1.992921408	-0.784789924
6.712268625	1.761517764	-0.759515177
6.191390838	1.869254225	-0.769246167
5.760051758	1.970723777	-0.783003989
6.695509181	1.735180771	-0.757012855
6.189484168	1.847977804	-0.768301313
5.76325254	1.952088335	-0.782621327
6.714283572	1.718081059	-0.758535992
6.191315336	1.827855376	-0.767828829
5.763572167	1.932505868	-0.781855885
6.720487032	1.697717271	-0.75864483
6.187361907	1.806069659	-0.766647763
5.740292068	1.905129345	-0.777901354
6.7275926	1.677572095	-0.758862387
6.200505867	1.789281108	-0.767592615
5.761187014	1.892461904	-0.779942397
6.71436767	1.652410813	-0.756795238
6.205011361	1.769977396	-0.767474538
5.752816935	1.8701784	-0.778028908
6.720371607	1.632038266	-0.756904017
6.217102775	1.752818641	-0.768301314
5.760416032	1.853127668	-0.778284017
6.733080761	1.613265721	-0.757774424
6.214798394	1.731604408	-0.767356402
5.764184122	1.83484462	-0.778028909
6.737998331	1.592601293	-0.757774423
6.221996344	1.713056668	-0.767592615
5.767893943	1.816555797	-0.7777738
6.736076084	1.570342166	-0.757012855
6.190811685	1.684055123	-0.763104445
5.766811454	1.796786339	-0.776880804
6.725361373	1.546105319	-0.755272101
6.218005645	1.670981379	-0.765820986
5.749548834	1.772074404	-0.773819211
6.723286888	1.523926697	-0.754510474
6.239418831	1.656227865	-0.767828828
5.752112057	1.753559022	-0.77343649
6.726960614	1.50307602	-0.754401695
6.251194586	1.638840542	-0.768655604
5.765062132	1.738194038	-0.774457041
6.736393995	1.483499874	-0.754945706
6.252347765	1.618658951	-0.768183178
5.77321895	1.721348996	-0.774839761
6.738970874	1.462404235	-0.75472809
6.25536006	1.598977555	-0.767946964
5.791791711	1.707555634	-0.776625696
6.728844275	1.438604986	-0.753096115
6.231351827	1.572489894	-0.764403648
5.791289945	1.688113339	-0.775860254
6.732253596	1.417749664	-0.752987336
6.228438322	1.551444839	-0.763458794
5.792629637	1.669239352	-0.775350037
6.722944658	1.394262612	-0.751464141
6.260168874	1.538966503	-0.766765839
5.797723384	1.651459972	-0.775350037
6.74569581	1.377409006	-0.753531347
6.239770566	1.513666826	-0.763695008
5.814219177	1.636890447	-0.776880804
6.75378798	1.35749057	-0.753966521
6.242453968	1.494054122	-0.763458795
5.814436143	1.617715654	-0.776242974
6.743293458	1.33387037	-0.752334546
6.246041863	1.474667289	-0.763340718
5.815546621	1.598818037	-0.7757327
6.75711138	1.315074959	-0.75342251
6.22249003	1.448966855	-0.759915537
5.808938456	1.577848815	-0.774201932
6.762090594	1.294525175	-0.753531347
6.24335885	1.433647723	-0.761923379
5.806088165	1.557963453	-0.773181381
6.766030253	1.273773355	-0.753531347
6.253538824	1.415802264	-0.762632019
5.824262976	1.543700725	-0.774967316
6.745469966	1.248486599	-0.750811409
6.259791028	1.397042541	-0.762868232
5.828971353	1.52582488	-0.774967315
6.749268378	1.227785842	-0.750811408
6.256288988	1.376124602	-0.761923378
6.752024851	1.20689877	-0.750702571
6.251747382	1.355031011	-0.76086039
6.757654219	1.186521927	-0.750920188
6.247135144	1.333978364	-0.7597974
6.760282804	1.165615317	-0.750811408
6.240509163	1.312557894	-0.758498198
6.760886689	1.144371826	-0.750485014
6.253257971	1.295218724	-0.759561187
6.746714299	1.120692286	-0.748526643
6.26790501	1.278210524	-0.76086039
6.748158756	1.099668604	-0.748309028
6.27666496	1.259951981	-0.761450952
6.770151511	1.081940926	-0.750376177
6.282449391	1.241074421	-0.761687166
6.792098445	1.064088656	-0.752443325
6.279403696	1.220468119	-0.760860389
6.757994082	1.037513702	-0.748309028
6.286044893	1.201756801	-0.761214739
6.786703434	1.020619114	-0.751137803
6.285798602	1.181731939	-0.760742313
6.784885628	0.999068898	-0.750593793
6.287441486	1.162080818	-0.760506041
6.768240529	0.975412574	-0.748417864
6.292930964	1.143140795	-0.760742312
6.750530611	0.951729035	-0.7461331
6.299341164	1.12435242	-0.761096603
6.74554076	0.929928184	-0.745262694
6.295914638	1.103820619	-0.760269828
6.747376793	0.909096041	-0.745153915
6.296335663	1.083994419	-0.759915537
6.767874285	0.890725877	-0.747112285
6.2869028	1.062521223	-0.75838012
6.777476487	0.870844975	-0.747873853
6.290133251	1.043228244	-0.758380121
6.788993627	0.851160773	-0.748853039
6.307025518	1.026158028	-0.760033613
6.78861269	0.829966539	-0.748526644
6.337601056	1.011184335	-0.763340717
6.794088228	0.80948827	-0.748853038
6.30044946	0.985444714	-0.758498198
6.823200548	0.791734098	-0.751790535
6.290683053	0.964154856	-0.756962782
6.819670943	0.770127839	-0.751137804
6.27298966	0.941754836	-0.754482514
6.807179626	0.747573966	-0.749505829
6.261112683	0.920338976	-0.752710826
6.788683462	0.724471165	-0.747221063
6.290444407	0.904943509	-0.755899793
6.790874367	0.703640347	-0.747221064
6.299091369	0.886470736	-0.756608434
6.811793493	0.684691868	-0.749288212
6.305716022	0.867682669	-0.757080918
6.825735027	0.664946974	-0.750593793
6.313269035	0.84899469	-0.757671422
6.820815234	0.643349345	-0.749832224
6.324704893	0.830785764	-0.758734411
6.819786876	0.622149411	-0.749505829
6.33116396	0.811883162	-0.759206839
6.814732071	0.600612778	-0.74874426
6.336580622	0.792825408	-0.759561187
6.811589829	0.579281487	-0.748200248
6.343911745	0.773982644	-0.76015175
6.810363009	0.558137475	-0.747873854
6.349214364	0.754867834	-0.76050604
6.812043433	0.537240937	-0.747873854
6.356432877	0.735956205	-0.761096604
6.813659453	0.516339381	-0.747873854
6.356687145	0.716229106	-0.76086039
6.821160089	0.495865358	-0.748526644
6.34997097	0.69575037	-0.759797401
6.829591004	0.475419241	-0.749288213
6.357999993	0.676896372	-0.760506041
6.828041687	0.454266162	-0.748961817
6.363997655	0.65779552	-0.760978526
6.841308147	0.434071231	-0.750267398
6.846576587	0.41331995	-0.750702571
6.837887974	0.391744422	-0.749614607
6.842035789	0.370925684	-0.749941003
6.829242503	0.349222132	-0.748417864
6.826310181	0.328077774	-0.747982632
6.832249863	0.307356794	-0.748526643
6.836140547	0.286519172	-0.748853039
6.84195381	0.265737726	-0.749396991
6.837769677	0.24456801	-0.748853039
6.83550717	0.223491418	-0.748526644
7.318461004	1.026442328	-0.74948536
6.82721789	0.202254415	-0.747547458
7.329461206	1.005066109	-0.750292528
6.836749895	0.181545328	-0.748526644
7.338426705	0.983367738	-0.750897932
6.825349197	0.160289569	-0.747221064
7.344368542	0.961236466	-0.751200663
6.825808843	0.139348928	-0.747221064
7.345309273	0.93844758	-0.750998842
6.798374442	0.117924259	-0.74417473
7.353089719	0.916523318	-0.751503335
6.790752597	0.096953057	-0.743304382
7.365743403	0.895160347	-0.752512323
6.793006022	0.076141146	-0.74352194
7.370431011	0.872792315	-0.752714144
6.785255377	0.055235403	-0.742651592
7.358249037	0.848466613	-0.751200663
6.810244344	0.03454433	-0.745371531
7.358840065	0.825665939	-0.750998842
6.797395779	0.013624729	-0.743957173
7.361338408	0.803085422	-0.750998842
6.820268965	-0.007253768	-0.746459495
7.364757012	0.780602271	-0.751099753
6.81524429	-0.028157489	-0.745915484
7.365137653	0.757800205	-0.750897931
6.820095839	-0.049102015	-0.746459495
7.373367953	0.73579341	-0.751503336
6.808979038	-0.069913273	-0.745262694
7.373610246	0.712977322	-0.751301574
7.384677662	0.69118645	-0.75220965
7.370909937	0.667092526	-0.750595258
7.404637546	0.647248063	-0.753824042
7.387752674	0.622939633	-0.751906978
7.384670776	0.599868653	-0.751402426
7.357712181	0.574962203	-0.748476373
7.37432312	0.553503335	-0.749989855
7.391863385	0.532019359	-0.751604246
7.391475974	0.509202188	-0.751402425
7.395981837	0.486719078	-0.751705157
7.381552944	0.463029662	-0.750090765
7.364069404	0.439255666	-0.748173642
7.350482549	0.415818073	-0.74666016
7.346756181	0.392999434	-0.746155666
7.367800045	0.371459957	-0.748173641
7.378842699	0.349324592	-0.749182629
7.376898189	0.326552985	-0.748879956
7.383829498	0.304165145	-0.74948536
7.390693069	0.281737815	-0.750090765
7.959703269	-0.011070436	-0.728732925
7.384562801	0.258818234	-0.74938445
7.964611264	-0.035512609	-0.729188782
7.37637257	0.235875322	-0.748476373
7.931602574	-0.059700179	-0.726180117
7.38302816	0.213416296	-0.749081777
7.928394751	-0.084002062	-0.72590665
7.374697209	0.190533223	-0.748173642
7.923121722	-0.108257611	-0.725450795
7.371268594	0.167816498	-0.747770058
7.93470057	-0.132764821	-0.726544838
7.364785811	0.14506382	-0.747063744
7.972090112	-0.157856673	-0.730009358
7.367185525	0.122501382	-0.747265564
7.980528461	-0.182518877	-0.730829876
7.353599246	0.09970975	-0.745852934
7.965993248	-0.20664041	-0.7295535
7.366803561	0.077284438	-0.747164653
7.979258093	-0.231483047	-0.730829876
7.347108947	0.054535342	-0.745146679
7.984482008	-0.256153556	-0.731376926
7.349231514	0.032003139	-0.745348441
7.986644126	-0.28075336	-0.731650393
7.340341024	0.009444344	-0.744440364
7.971814126	-0.304722179	-0.730374019
7.338345574	-0.013072004	-0.744238543
7.979796468	-0.329547749	-0.731194537
7.332301273	-0.035556723	-0.743633138
7.927014948	-0.351732414	-0.726453642
7.329173283	-0.058028108	-0.743330465
7.953751243	-0.377371976	-0.72900645
7.326971285	-0.080491562	-0.743128645
7.962501691	-0.402274444	-0.729918163
7.338627102	-0.103137787	-0.744339453
7.963218838	-0.426807733	-0.730100494
7.338276133	-0.125651895	-0.744339453
7.952923404	-0.450729403	-0.729279975
7.338851157	-0.148184908	-0.744440364
7.937586343	-0.474294927	-0.728003542
7.338361853	-0.170699486	-0.744440364
7.962928711	-0.500330997	-0.730465214
7.340787429	-0.193291016	-0.744743037
7.955394559	-0.524365573	-0.729918163
7.34015979	-0.215811326	-0.744743037
7.941826006	-0.547947364	-0.728824119
7.329519498	-0.238006713	-0.743734049
7.91130348	-0.570233747	-0.726180118
7.327760272	-0.260456896	-0.743633138
7.910509338	-0.594577244	-0.726271312
7.327920765	-0.282975316	-0.743734049
7.922547333	-0.619931147	-0.727547686
7.327018361	-0.305455733	-0.743734049
7.923586096	-0.644476503	-0.727821212
7.328034723	-0.328022248	-0.74393587
7.963248163	-0.672301242	-0.731650393
7.319043676	-0.350122479	-0.743128645
7.965116564	-0.697076249	-0.732015114
7.323896615	-0.372878875	-0.743734049
8.641043125	-1.099179032	-0.715382389
7.973849959	-0.722498089	-0.733018021
7.308810104	-0.394595629	-0.742321478
8.635654311	-1.125426544	-0.715218715
7.976552765	-0.747422653	-0.733473877
7.302598458	-0.416733447	-0.741816925
8.62919687	-1.151519619	-0.714973144
7.972239835	-0.771698971	-0.733291487
7.307244365	-0.439493944	-0.74242233
8.623648721	-1.177718502	-0.714809469
7.965871229	-0.795757867	-0.732926826
7.317776323	-0.462663503	-0.743633138
8.609137428	-1.202653124	-0.713909082
7.960420503	-0.819886998	-0.7326533
7.322278646	-0.485506875	-0.744238542
8.595540196	-1.22765076	-0.71309059
7.947965484	-0.843254705	-0.731741589
7.321747447	-0.508037893	-0.744339453
8.610471616	-1.256750708	-0.714645736
7.935441291	-0.866553716	-0.730829876
7.320154302	-0.530498287	-0.744339453
8.598689149	-1.281985616	-0.713990919
7.928786455	-0.890450713	-0.730465213
7.332381299	-0.554003115	-0.745752024
8.578951569	-1.305960098	-0.712681345
7.916124867	-0.913629931	-0.729553501
7.330646951	-0.576495961	-0.745752024
8.573919132	-1.332120845	-0.712599448
7.936029792	-0.940607795	-0.731650393
7.335785227	-0.599550633	-0.746458339
8.575698273	-1.359355173	-0.713090591
7.929152171	-0.964469753	-0.731285731
7.332919761	-0.621969616	-0.746357428
8.571487821	-1.385658578	-0.713090591
7.895522519	-0.98496994	-0.728459399
7.326021652	-0.64402811	-0.745852934
8.561295407	-1.410976699	-0.712599448
7.901354445	-1.010325279	-0.729279976
7.333919292	-0.667402678	-0.746861922
8.550046755	-1.43608012	-0.712026529
7.886368102	-1.033009434	-0.728185932
7.335799691	-0.690272464	-0.747265565
8.564265457	-1.465498432	-0.713581674
7.888097249	-1.057861475	-0.728641789
7.336618143	-0.71306388	-0.747568238
8.560710964	-1.491937466	-0.713663511
7.883828224	-1.081921437	-0.728550594
7.344294911	-0.736561747	-0.748577225
8.561981541	-1.519238984	-0.714154653
7.887374999	-1.107072475	-0.729188782
7.345959207	-0.759499531	-0.748980867
8.544530016	-1.543196923	-0.713090591
7.908584262	-1.134801488	-0.731468062
7.3396374	-0.781611637	-0.748577225
8.532893475	-1.568142882	-0.712517611
7.903094897	-1.158770482	-0.731285731
7.317425439	-0.801957925	-0.74655925
8.496692621	-1.588453284	-0.709898345
7.875866009	-1.17947156	-0.729097644
8.489821496	-1.614141001	-0.70973467
7.874179816	-1.203929846	-0.729279976
8.489721888	-1.641125618	-0.710143916
7.855690319	-1.22577897	-0.727912407
8.476823444	-1.665626659	-0.709489099
7.843041559	-1.248465162	-0.727091831
8.474605626	-1.692210913	-0.70973467
7.83229343	-1.271404417	-0.726453643
8.485979047	-1.721571234	-0.711126141
7.799863949	-1.290712782	-0.723809699
9.446455343	-2.30854083	-0.705416807
8.525559718	-1.756850694	-0.714891307
7.788011856	-1.313311673	-0.723080318
9.440296487	-2.337751064	-0.705489167
8.488912673	-1.776465858	-0.71227204
7.791797593	-1.338547587	-0.7238097
9.441786512	-2.368886867	-0.706140289
8.521442725	-1.810579426	-0.715464285
7.795501746	-1.363819027	-0.724539081
9.434474536	-2.397842675	-0.706140289
8.514874459	-1.836504208	-0.71538239
7.801085069	-1.389475158	-0.725450794
9.42320999	-2.42578126	-0.705850908
8.517961616	-1.8645369	-0.716119102
7.805604521	-1.415000645	-0.726271312
9.422480141	-2.456441267	-0.706357369
8.516092947	-1.891525266	-0.71644651
7.809061057	-1.44038631	-0.727000694
9.428399719	-2.488901212	-0.707370231
8.507333446	-1.916986034	-0.71620094
7.814392945	-1.466173846	-0.727912407
9.414938181	-2.516270325	-0.70693613
8.500440706	-1.942855162	-0.716119103
7.816704975	-1.491447611	-0.728550594
9.374440384	-2.536286973	-0.704476247
8.504148476	-1.971175543	-0.716937593
7.745615028	-1.502526318	-0.722350936
9.35891972	-2.562927738	-0.703897426
8.52328711	-2.003185063	-0.719065719
7.79470516	-1.536877685	-0.727365355
9.349090038	-2.591095702	-0.703752765
8.520010047	-2.030017876	-0.71931129
7.771401347	-1.557067145	-0.725633125
9.343017282	-2.620304741	-0.703897426
8.527304879	-2.059422841	-0.720457189
9.338772168	-2.650045593	-0.704186865
8.524818288	-2.086522385	-0.720784597
9.306631528	-2.671803624	-0.702378103
8.506769098	-2.109787307	-0.719802372
9.296475387	-2.699787152	-0.702233383
8.493489647	-2.13417575	-0.719229451
9.291019352	-2.72913888	-0.702450404
8.493663135	-2.161944126	-0.719802372
9.289295443	-2.759618725	-0.702956865
8.495676671	-2.190231409	-0.720539085
9.285561583	-2.789539643	-0.703318606
8.488916813	-2.216285534	-0.720539085
9.278867915	-2.818594072	-0.703463325
8.49267639	-2.245120693	-0.721439413
9.263502878	-2.844998176	-0.702956864
8.501152294	-2.275288018	-0.722749046
9.248063848	-2.871334744	-0.702450404
8.534534761	-2.312304996	-0.726186804
9.230646334	-2.897005826	-0.701799282
8.594681548	-2.356928134	-0.73191642
9.189391168	-2.915057709	-0.699339339
8.603735638	-2.387816108	-0.73330789
9.191802275	-2.946890614	-0.700207541
8.597329163	-2.414470383	-0.733389727
9.190308475	-2.977536144	-0.700786361
8.585087554	-2.439473039	-0.732980481
9.183974207	-3.006648367	-0.701003441
8.584268503	-2.467727869	-0.733553461
9.169024833	-3.032930994	-0.70056934
8.565172683	-2.490712844	-0.732571236
9.156839588	-3.0600986	-0.700352261
8.543149478	-2.512760278	-0.731343441
9.149298166	-3.088814942	-0.700496981
8.511518403	-2.531854575	-0.729297154
9.128450508	-3.113007023	-0.699628779
8.48557639	-2.5525009	-0.727742008
9.117914354	-3.14067332	-0.69955642
8.457681645	-2.572431901	-0.726023129
9.119539834	-3.172564375	-0.700424621
9.136110721	-3.209784546	-0.702450404
9.121520672	-3.236131155	-0.702088663
9.094648626	-3.258045794	-0.700786362
9.087423598	-3.286950146	-0.701003441
9.082917865	-3.316867304	-0.701437542
9.088608232	-3.350582479	-0.702667484
9.085763585	-3.381233263	-0.703246304
9.074414432	-3.408741237	-0.703173945
9.055520174	-3.433382717	-0.702522764
9.037492216	-3.458296971	-0.701944003
9.02218736	-3.484210702	-0.701582203
9.022607045	-3.516219873	-0.702450404
10.18504728	-3.450395637	-0.694086369
10.18682171	-4.778070105	-0.404716423
10.17441401	-3.48162671	-0.69408637
10.16745754	-3.514129008	-0.694343982
10.15285964	-3.543990326	-0.69408637
10.14570365	-3.576449204	-0.694343981
10.12528147	-3.604212416	-0.693699893
10.11323769	-3.634921768	-0.693635461
10.10203828	-3.665931761	-0.693635461
10.10573564	-3.702399637	-0.694666025
10.11304875	-3.740309478	-0.69595426
10.10900492	-3.77411066	-0.696469542
10.11232	-3.81073736	-0.697500107
10.20469623	-4.753379334	-0.50982013
10.08379226	-3.835357797	-0.696340737
10.07011455	-3.865561067	-0.696211872
10.0507638	-3.893553748	-0.69569659
10.03412374	-3.922554017	-0.695374546
10.06288753	-3.969432135	-0.698208627
10.06642508	-4.006559459	-0.699303624
10.86332511	-4.825976085	-0.6535595
10.05408526	-4.037423569	-0.699303623
10.62247779	-4.758054903	-0.639944787
10.05829967	-4.074994917	-0.700462994
10.94543926	-4.943090205	-0.660311932
10.05868257	-4.111120066	-0.701364752
11.1937541	-5.096635764	-0.676232332
10.07462311	-4.153752196	-0.703361449
11.42095707	-6.283933107	-0.468880107
10.42669032	-4.786057704	-0.630776877
10.0618317	-4.184640841	-0.703361448
11.39375838	-6.314582631	-0.468556603
11.34798738	-5.75961443	-0.57632437
10.25156488	-4.743803654	-0.621059949
10.05998882	-4.22012292	-0.704134401
11.34815407	-6.33489548	-0.467478206
11.27867798	-5.768020576	-0.573700395
11.28120033	-5.262337872	-0.684412117
10.05250911	-4.253300038	-0.704520819
11.31821222	-6.363803535	-0.467046847
11.18811149	-5.765074341	-0.569990602
11.28849532	-5.307969912	-0.685839469
10.03482353	-4.282162327	-0.704198775
11.28037328	-6.388156095	-0.466291984
11.07816472	-5.751500056	-0.565285531
11.27486416	-5.343860765	-0.686004156
10.02988796	-4.316478757	-0.704778489
11.23728368	-6.409365094	-0.465321442
11.03922217	-5.774347717	-0.564199772
11.3214836	-5.408555098	-0.689846987
10.00103649	-4.340475561	-0.703683493
11.25656179	-6.466210735	-0.466939022
10.9330783	-5.761614921	-0.559675661
11.35161815	-5.46578849	-0.692701692
9.994072179	-4.373938615	-0.704134401
11.17698419	-6.466184712	-0.464458754
10.8694686	-5.770771034	-0.557323125
11.35635571	-5.511051498	-0.694019253
9.979693388	-4.404176435	-0.704069969
11.15968371	-6.501954129	-0.464566579
10.75569592	-5.752735698	-0.552391913
11.33849722	-5.545427498	-0.693964357
9.995309899	-4.447755768	-0.706131098
11.13709823	-6.534643892	-0.464458754
10.69050657	-5.760118832	-0.549948898
11.34471742	-5.591664966	-0.695391709
9.994364282	-4.484119222	-0.707032856
11.11441668	-6.567255693	-0.464350899
10.64907829	-5.780022945	-0.54872736
11.32929715	-5.627332051	-0.695501501
9.978740995	-4.513937707	-0.70690405
11.07875686	-6.592125321	-0.46370389
10.62340691	-5.808353447	-0.548320201
11.32358655	-5.667873042	-0.696215147
9.974832971	-4.549085434	-0.707612511
11.04647901	-6.61889206	-0.463200619
10.56003516	-5.815858286	-0.545967665
11.28207437	-5.69044601	-0.6947329
9.952670043	-4.575914842	-0.707032856
11.00986316	-6.642942025	-0.462517669
10.4993378	-5.824482939	-0.543750849
11.26545339	-5.72548461	-0.694787796
9.98657014	-4.628668567	-0.710446593
10.98772338	-6.675650656	-0.462445756
10.46833813	-5.849357461	-0.54307225
11.23983576	-5.755923324	-0.694293732
9.975939693	-4.660975153	-0.710704264
10.96889596	-6.710372268	-0.462517669
10.34848681	-5.824121376	-0.53777906
11.1688836	-5.762908966	-0.69099986
9.966106841	-4.693684787	-0.711026308
10.95080981	-6.745565255	-0.462625494
10.23844907	-5.803624311	-0.532983509
11.06255806	-5.751090709	-0.685510093
9.962477961	-4.729373822	-0.711799201
10.8994893	-6.760167248	-0.461331447
10.20064195	-5.82361666	-0.53194299
10.93164519	-5.725703268	-0.678483124
9.954223125	-4.762931048	-0.71225011
10.86598367	-6.785634717	-0.460792234
10.12816713	-5.823513407	-0.529092815
10.86369133	-5.73265224	-0.675353939
9.946754435	-4.796915648	-0.712765392
10.8290403	-6.808832237	-0.460109284
10.79668094	-5.739707255	-0.672279651
10.80134494	-6.837746832	-0.459821692
10.73501047	-5.749233896	-0.669534797
10.76009048	-6.85796181	-0.458959004
10.62593027	-5.732835086	-0.663825387
10.70872063	-6.871511837	-0.457664957
10.57144631	-5.745382402	-0.661519701
10.6699605	-6.892945224	-0.456910064
10.49158537	-5.743744951	-0.657621915
10.64457397	-6.922923344	-0.456730356
10.45467914	-5.765297733	-0.656414205
8.995879059	-6.489539223	0.412359548
8.998088451	-6.496148903	0.007554168
8.980779262	-6.520630302	0.412582439
8.944594874	-6.536360417	0.411839467
8.666891694	-6.37430645	0.399951619
8.902033911	-6.429018458	0.302886189
8.889545556	-6.461588715	0.303134353
7.47639778	-5.893758226	0.702288852
8.775286993	-6.419776058	0.299908341
12.12776932	-7.5945423	-0.399198753
7.464531217	-5.921626048	0.702877389
12.09680222	-7.6269158	-0.398947788
7.44165225	-5.940765761	0.702436015
12.07672249	-7.666135526	-0.399059338
7.422613875	-5.962943808	0.702362404
12.70743808	-10.2227377	0.011101184
12.56842513	-9.377634767	-0.140681211
12.05230379	-7.702611812	-0.399031443
7.422898517	-6.000735337	0.704128073
12.60994972	-10.20819367	0.011043326
12.53079996	-9.409544429	-0.140582535
12.02189053	-7.735224567	-0.398808343
7.407547814	-6.025997897	0.704422341
12.56694301	-10.23735838	0.011033115
12.47953552	-9.431063697	-0.140331347
11.98216201	-7.76174506	-0.398278517
7.395198934	-6.053749011	0.705010936
12.50067442	-10.247337	0.011002485
12.36299129	-9.402719047	-0.139344562
11.9365238	-7.784272338	-0.397553456
7.377361321	-6.077043062	0.705084489
11.38379446	-9.39032357	0.01004477
12.28247227	-9.401098164	-0.13876145
11.88668107	-7.803849713	-0.39668895
7.354843681	-6.096465619	0.704716609
11.31338052	-9.39071479	0.010008014
12.24485828	-9.43202323	-0.138662774
11.81681712	-7.809966754	-0.395155174
7.339934587	-6.122195243	0.705084489
12.17476707	-9.43768823	-0.138196278
11.77532426	-7.834555337	-0.394569558
7.330284178	-6.152378477	0.705967293
8.501259609	-6.144408141	0.189500766
11.74541876	-7.866750728	-0.394374353
7.331184396	-6.191569113	0.707880125
8.918979657	-6.488070795	0.199254887
11.70796706	-7.89380755	-0.393928182
7.333432753	-6.232114401	0.709940003
7.441821869	-5.870372232	0.608295883
8.470658715	-6.201770874	0.189663337
11.88730592	-9.391271947	-0.135908712
11.66797974	-7.919024101	-0.393398327
7.325647623	-6.264305933	0.711043582
7.430029519	-5.898139294	0.608808244
11.83182564	-9.406539165	-0.1356037
7.376699073	-6.34724482	0.71788548
7.421256175	-5.928381064	0.609576787
11.78104807	-9.425303424	-0.135352511
7.379056494	-6.388776572	0.720018969
7.40303302	-5.951121155	0.609576786
11.7006686	-9.420014995	-0.134760443
12.55849591	-9.380936275	-0.286203919
7.389499286	-6.437589108	0.72296171
7.399481811	-5.985730131	0.610793615
11.60411592	-9.401104209	-0.13397998
12.5048816	-9.400795505	-0.285638032
7.368214392	-6.458914818	0.722814605
7.388048626	-6.014073399	0.611369993
11.55739382	-9.422128475	-0.133773643
12.41299175	-9.391458841	-0.284195868
7.341632892	-6.475552244	0.722152458
7.369563157	-6.036711248	0.611369993
11.49055028	-9.426464329	-0.133334074
12.32127755	-9.381647146	-0.282753704
11.41652657	-8.059238428	-0.389856708
7.350237642	-6.058657616	0.611305977
12.27259616	-9.404200199	-0.282297341
11.391748	-8.094226224	-0.389856708
7.324702408	-6.075445505	0.610729541
10.43150081	-9.321229836	0.520055962
12.23735222	-9.436924085	-0.28215128
11.36686185	-8.129136642	-0.389856708
7.306028988	-6.097888632	0.610729541
7.294928351	-6.126692712	0.611369993
7.812996513	-6.091770648	0.541757434
7.284482057	-6.156129986	0.612074519
10.24846006	-9.328722596	0.515189421
8.890096185	-6.474031937	0.095398603
7.294449766	-6.203016114	0.614508177
10.20873776	-9.349997058	0.514632177
8.750826026	-6.41378821	0.094114831
11.86497564	-9.384186881	-0.276200113
7.33452795	-6.275973276	0.619503701
7.400117081	-5.880160017	0.516859084
11.82126576	-9.40871352	-0.275853274
7.356076836	-6.333607238	0.622962083
7.396079539	-5.914060016	0.517841963
7.367531812	-6.381133398	0.980931913
7.366026771	-6.381630038	0.625459815
7.363897787	-5.92545561	0.516859084
7.350920606	-6.406321426	0.981332457
7.397189774	-5.985451711	0.868319408
7.358449715	-6.414691086	0.626484538
7.343356249	-5.94613468	0.51669529
7.296071462	-6.398011607	0.976626074
7.378019821	-6.00748864	0.868228511
7.33873488	-6.437236413	0.626484538
7.331271562	-5.973681566	0.517132132
7.381604225	-6.513184951	0.990745281
7.365716465	-6.035145022	0.868955509
7.292764061	-6.436607912	0.624242986
7.323719826	-6.005008755	0.517896561
9.843668068	-9.354585639	0.50482471
7.346398015	-6.057081202	0.868864671
7.299100798	-6.022365983	0.517459719
9.791086971	-9.361951776	0.503598761
10.49945692	-9.334139134	0.387506814
7.309386647	-6.064329793	0.866683618
7.289040694	-6.051747083	0.518060355
9.709027863	-9.340677191	0.500849676
7.423000165	-6.197138605	0.882405177
7.283466803	-6.084964286	0.518988578
9.668837028	-9.359299596	0.500255298
10.31790612	-9.286709057	0.382902176
7.302539214	-6.134687795	0.870318667
7.276228877	-6.116918776	0.519807606
9.60786283	-9.357543915	0.498583567
7.298133879	-6.169278062	0.872045294
10.29176266	-9.378121532	0.384060235
7.29737837	-6.207125086	0.874226348
7.450418947	-5.886599484	0.776485109
10.22462917	-9.374523283	0.382626445
7.316886177	-6.262509182	0.878861025
7.506436574	-5.968356161	0.78422799
7.438609534	-5.920786686	0.429728379
7.329331659	-6.312222217	0.882677809
7.497429496	-5.998829876	0.785206043
9.346884373	-9.323728328	0.973905311
7.434444159	-5.954821692	0.430541118
7.331756524	-6.353591992	0.885313169
7.482871699	-6.024928539	0.78561356
9.29641534	-9.330459187	0.971624659
7.448029188	-6.003305278	0.432392438
7.30472345	-6.369510553	0.884404436
7.463577626	-6.047230071	0.785532021
9.257219735	-9.348306113	0.970521138
7.260444713	-6.370217026	0.881405548
7.460439407	-6.082695586	0.787162089
9.166934885	-9.314113935	0.96404706
7.347624839	-6.486710977	0.894400791
7.439430905	-6.103658979	0.78691759
9.139014641	-9.342907233	0.964120613
7.423744511	-6.128992054	0.787243627
9.073463399	-9.333003336	0.960221456
7.382673822	-6.133268896	0.784880005
9.030234834	-9.345734959	0.958676503
9.674152157	-9.307246953	0.861528302
7.375292761	-6.165478327	0.786102556
8.971125714	-9.341745865	0.955439494
9.617588208	-9.309813751	0.85903057
7.377698436	-6.206040935	0.78838464
8.921077475	-9.346860608	0.953158842
9.567534096	-9.318387771	0.857109214
7.358623673	-6.228646286	0.78838464
8.87039696	-9.35103224	0.950804637
9.526070743	-9.335124315	0.85595646
7.356931646	-6.26605644	0.790259265
8.787620557	-9.320876428	0.944992707
9.486016015	-9.35309495	0.854931737
7.356592054	-6.304812179	0.792296849
8.755573918	-9.344154105	0.944624887
9.423270565	-9.348417761	0.851857568
7.360612772	-6.347529923	0.794823431
8.689483029	-9.330831735	0.940578566
9.345104249	-9.327933459	0.847374464
7.394551795	-6.416459849	0.800610208
8.669622451	-9.366961282	0.941534982
9.279123076	-9.319080208	0.843980099
7.378585153	-6.442393334	0.801017724
8.616537775	-9.367091605	0.938886509
9.235045925	-9.331898306	0.842571104
7.361780338	-6.467631562	0.801343761
8.533926386	-9.334598721	0.933000968
9.187478375	-9.340978038	0.840841914
8.48110397	-9.334164634	0.930352495
9.132269059	-9.342003095	0.838408197
8.433044191	-9.338675442	0.928219006
9.095220595	-9.361387389	0.837639655
8.392363934	-9.351143799	0.92689477
9.014466225	-9.335405447	0.832836355
8.340401698	-9.350798681	0.924319849
8.974727496	-9.351496823	0.831811631
8.899845901	-9.330604762	0.827520634
9.562738197	-9.322623682	0.730296938
10.20151136	-9.253269023	0.622534921
8.194694185	-9.293532706	1.370543043
8.827924522	-9.312238105	0.823485816
9.501302375	-9.319754563	0.727785258
10.22177447	-9.328969251	0.625515093
8.159592518	-9.311155023	1.369443576
8.784257674	-9.323299038	0.822076823
9.462715692	-9.339041235	0.727020829
10.1636733	-9.333257392	0.623708953
8.112057766	-9.314408435	1.366255206
8.742652679	-9.336364669	0.820859994
9.406386898	-9.340588653	0.724891334
10.11738251	-9.348124643	0.622625222
8.077588324	-9.33248777	1.365265767
8.692891869	-9.340496356	0.818874622
9.335303865	-9.327059463	0.721615224
10.07329003	-9.364836297	0.621677031
8.004195582	-9.30523335	1.357679765
8.63912277	-9.3400152	0.816504921
9.25805536	-9.306809783	0.717847733
10.02189535	-9.374541315	0.620277216
7.953005287	-9.303302914	1.35383169
9.214716698	-9.320258228	0.716701119
9.96399	-9.377857681	0.618471077
7.908980864	-9.309478818	1.351193111
8.515103476	-9.317397086	1.270324803
9.181879935	-9.344211443	0.716373472
9.877143574	-9.353430719	0.614858796
7.870764747	-9.322307672	1.34954397
8.467746787	-9.322854627	1.267521
9.13782037	-9.356621433	0.71517226
9.8368289	-9.372663933	0.614136328
7.839571442	-9.343364945	1.349104206
8.410436589	-9.31703124	1.263215161
9.035354001	-9.3086639	0.70938447
9.756828083	-9.353713961	0.610930433
7.826146469	-9.385694043	1.351742786
8.351248592	-9.308721716	1.258608913
9.014378179	-9.344244478	0.709985106
9.707953359	-9.364184857	0.609666099
7.822047896	-9.439507414	1.356030623
8.29351589	-9.301623448	1.254202938
8.945588009	-9.330052858	0.706818192
9.628997899	-9.345222531	0.606505325
7.81137416	-9.485711543	1.359218877
8.255041663	-9.31585325	1.252700901
9.567404133	-9.342613847	0.604428281
7.806785282	-9.539631026	1.363506715
8.218531034	-9.332175508	1.251499271
9.497366596	-9.331315307	0.601809373
7.843955822	-9.645276034	1.375160615
8.155131525	-9.317663675	1.246192073
8.781096756	-9.322347124	1.168664292
9.454484988	-9.346363008	0.600906303
7.83369483	-9.693260118	1.378568809
8.08471486	-9.294593665	1.239783381
8.735439895	-9.331068514	1.166392402
9.391768909	-9.341509474	0.598738899
7.821967974	-9.73972227	1.38175718
8.03338786	-9.293009092	1.236278629
8.68167204	-9.330848327	1.163029984
9.329172084	-9.33635939	0.596571496
7.823669728	-9.803294437	1.38736419
7.998355305	-9.310064191	1.235277271
8.64556719	-9.349396528	1.162030414
9.289221256	-9.353595897	0.595849087
7.820731301	-9.861516635	1.392201703
7.960710595	-9.323965604	1.23387537
8.59999617	-9.357545943	1.159758523
7.840887441	-9.949477408	1.401216906
7.912111939	-9.324825637	1.23077116
8.501398946	-9.307415449	1.150307373
7.826259186	-9.99383252	1.404075426
7.86422421	-9.326237004	1.227767086
8.452722757	-9.311332621	1.147581057
9.124459098	-9.348609898	1.068268144
7.8205887	-10.04995708	1.408583086
7.830462247	-9.344218591	1.226965999
8.405437966	-9.31651827	1.145036535
9.058954733	-9.338643621	1.063948475
7.813430872	-10.10456831	1.412870806
7.838687657	-9.412542856	1.232773876
8.348892988	-9.311121085	1.14121981
9.003282772	-9.338408695	1.06076976
7.136433416	-9.287798759	1.730236391
7.810856306	-10.16553499	1.41803817
7.820557746	-9.449578146	1.234476184
8.312998863	-9.328512989	1.140220122
8.949767095	-9.340080223	1.057835662
7.089294705	-9.285274125	1.725706199
7.803155637	-10.22026003	1.42232589
7.844619288	-9.538077641	1.242887592
8.242083881	-9.306259804	1.134404138
8.889451739	-9.334293126	1.054086529
7.021910333	-9.255752082	1.716207366
7.798797021	-10.27978507	1.427273314
7.833580301	-9.584441082	1.245791531
8.195069874	-9.310571306	1.131859615
8.821720629	-9.320262533	1.049440824
6.986335184	-9.267772251	1.714453797
7.786966263	-10.32985459	1.430901448
7.815430174	-9.622330308	1.247593975
8.138273043	-9.303438825	1.127951935
8.766451197	-9.318971189	1.046262226
6.956682715	-9.287578379	1.714161495
7.790394662	-10.40063236	1.437387985
7.80524507	-9.670263766	1.250698185
8.078983288	-9.293040107	1.123680668
8.71399607	-9.320341618	1.043409549
6.913981003	-9.289831342	1.71065424
7.767350379	-10.43644384	1.439037126
7.801686982	-9.726763264	1.254903889
8.036762356	-9.301957224	1.121772364
8.661615333	-9.321477522	1.040556871
6.879565647	-9.303045052	1.709192971
7.432092811	-9.31843118	1.643123889
7.729976546	-10.45303227	1.438047688
7.80157635	-9.787999804	1.259710407
7.967315895	-9.27897023	1.116047101
8.624186305	-9.338488367	1.039497339
6.83810538	-9.306569596	1.705978016
7.397931886	-9.334201623	1.641894842
7.661971048	-10.4278385	1.431341211
7.815372116	-9.867265705	1.26682005
7.925881676	-9.288218491	1.114229635
8.562472916	-9.328924202	1.035503709
6.79960471	-9.31392141	1.703493694
7.396841917	-9.391874751	1.648040081
7.726056957	-10.58295134	1.449371737
7.818908173	-9.934197884	1.272327518
7.910230956	-9.327682131	1.116047101
8.506271765	-9.32495914	1.032162033
6.747763916	-9.302707266	1.697648267
7.358835135	-9.402822745	1.645991708
7.777590474	-10.72246225	1.465203445
7.802492322	-9.976164928	1.274630642
7.859114473	-9.325253839	1.112866477
8.463566049	-9.335506231	1.030450427
6.704732073	-9.303300744	1.69399486
7.319614703	-9.412060955	1.643670107
7.718507179	-10.70998722	1.460256022
7.790776573	-10.02441016	1.27773497
7.812564136	-9.327944992	1.110321955
8.388851202	-9.310337351	1.024826728
6.666943405	-9.310958259	1.691656808
7.302818878	-9.450149867	1.646401429
7.708180347	-10.76513361	1.464543859
7.814110646	-10.11835085	1.286647057
7.807481889	-9.380190141	1.113684372
8.344290575	-9.318210514	1.022870623
6.617702384	-9.302348191	1.686395864
7.271982002	-9.470152503	1.645991706
7.821828793	-9.456279185	1.119863943
8.299761397	-9.325897811	1.020914518
6.579995922	-9.309681824	1.684057693
7.300582302	-9.568023753	1.659101748
8.240736358	-9.316976009	1.017165386
6.521272713	-9.286916732	1.676312547
7.268201227	-9.586430246	1.658418919
8.192372427	-9.319757794	1.014720284
6.474071644	-9.280105847	1.671490173
7.19643472	-9.552505934	1.648722912
7.818416991	-9.624076629	1.588867445
8.138824284	-9.316324599	1.011623108
6.432609625	-9.281223055	1.668129066
7.253172853	-9.689531721	1.668524528
7.805676343	-9.668856188	1.592299123
8.098441602	-9.327703966	1.010156117
6.386712875	-9.275656144	1.663598875
7.20685778	-9.689482248	1.664700771
7.820665608	-9.74846407	1.601450343
8.052858493	-9.332886475	1.008036935
6.358784132	-9.296022702	1.663745025
7.209479435	-9.755365216	1.672211791
7.812980231	-9.800332569	1.606025952
7.964597139	-9.278875509	1.449916604
6.324674465	-9.307305708	1.66228364
7.079841596	-9.641695324	1.648996021
7.827223091	-9.880235414	1.615177054
7.936736585	-9.30402242	1.450034382
6.292769046	-9.32174558	1.661406854
7.044973108	-9.656167964	1.647766973
7.818348313	-9.931479545	1.619625468
7.896596472	-9.314693626	1.447914961
6.249263917	-9.318824012	1.657461147
7.054851366	-9.732276752	1.657053257
7.817177238	-9.992919547	1.625726242
7.862863576	-9.332800744	1.446972969
7.007591523	-9.729759087	1.652956391
7.801700959	-10.03643348	1.628903765
7.846306303	-9.371346175	1.449210169
6.993272892	-9.772964559	1.656643535
7.809072705	-10.10977469	1.636911052
7.827045788	-9.40682471	1.450976374
6.973588746	-9.808906081	1.659101748
7.807008231	-10.17145357	1.643011826
7.82093066	-9.458344173	1.455215218
6.94632036	-9.834300153	1.659784579
7.792006589	-10.21665216	1.646443505
7.810790013	-9.505310922	1.458747509
6.924082939	-9.86691754	1.661696458
7.780995006	-10.26738699	1.650764841
7.81236853	-9.566918607	1.464517118
6.902843865	-9.90111631	1.663881445
7.750651393	-10.29279525	1.651018996
7.821151037	-9.637878154	1.471699479
6.450804068	-9.306911873	1.987342236
6.870743234	-9.919803766	1.663471723
7.740429713	-10.34511637	1.655594606
7.805259539	-9.678834286	1.474289897
5.903836598	-9.289760257	2.042816204
6.385352958	-9.273117328	1.975933667
6.867793414	-9.980825016	1.670163298
7.705103878	-10.36403903	1.654832024
7.827071476	-9.767052752	1.484062793
5.864812065	-9.291200437	2.03916673
6.837699475	-10.00266571	1.670299911
7.677396825	-10.39321386	1.655721683
7.810679621	-9.808110254	1.486653211
5.819044844	-9.281659277	2.033144992
6.833136665	-10.0621138	1.676718377
7.636671048	-10.40472489	1.653815169
7.810747153	-9.870184019	1.492422703
5.783265717	-9.28778339	2.030590337
6.807220446	-10.09042176	1.677947426
7.590687529	-10.40886994	1.650764841
7.805596568	-9.926104826	1.49725032
5.743366975	-9.287086096	2.026575846
6.822557142	-10.18038402	1.689418697
7.556389741	-10.42889669	1.650256414
7.803844793	-9.986781755	1.502784373
5.700954117	-9.282041233	2.021649161
6.676025645	-9.263382942	1.891530439
6.738590895	-10.1221045	1.676308655
7.512768691	-10.43592981	1.647714395
7.797531023	-10.04205055	1.507494095
5.660162289	-9.279343584	2.017269653
6.647574339	-9.283821375	1.891530439
6.705319412	-10.1394258	1.675762439
7.453018494	-10.42020463	1.641613739
7.779424981	-10.08243645	1.509966734
5.621478794	-9.27984575	2.013620179
6.604191686	-9.283271524	1.887281226
6.750870359	-10.27669285	1.69501772
7.41297107	-10.43170227	1.639834303
7.765978018	-10.12911009	1.513381365
5.589434077	-9.291151367	2.012342734
6.555180774	-9.274485926	1.88139777
7.369490748	-10.4381895	1.637292284
7.79805412	-10.23583008	1.525744679
5.553339335	-9.295594585	2.009605687
6.519892612	-9.284864594	1.879436657
7.315218032	-10.42908052	1.632335443
7.782797355	-10.28108401	1.528923753
5.505731598	-9.280455291	2.002671522
6.478393967	-9.286214063	1.875677751
7.277516682	-10.4433358	1.631064433
7.793004062	-10.36046439	1.537166001
5.470745501	-9.286290393	2.000299493
6.440319814	-9.292261516	1.872899459
6.942108237	-9.278283315	1.807365143
7.24092621	-10.4590895	1.630047697
7.7522649	-10.37239346	1.535399798
5.429818234	-9.281813661	1.995737591
6.391639686	-9.282724217	1.867016004
6.896515157	-9.276542815	1.802895989
7.186320205	-10.44856586	1.62496366
7.719222252	-10.39453369	1.535164241
5.391439415	-9.281425572	1.992088119
5.862250626	-9.28548193	1.927187917
6.354775422	-9.290075728	1.864564583
6.85158476	-9.27540425	1.798580969
7.126251859	-10.4296148	1.618608731
7.708521692	-10.44693323	1.539403084
5.343780602	-9.264706061	1.984971562
5.824317067	-9.288402929	1.924076436
6.318481283	-9.298104547	1.8622766
6.811988141	-9.281246748	1.795652951
7.065253046	-10.40875277	1.61199953
7.633572447	-10.41206983	1.530807736
5.319729271	-9.288736343	1.986613791
5.787982604	-9.293686403	1.921483631
6.770673828	-9.28453929	1.792262639
7.580543761	-10.40654449	1.526568892
5.262773069	-9.255009046	2.387036721
5.264476304	-9.258004995	1.976577561
5.743899322	-9.286270975	1.91629791
6.729403723	-9.287665116	1.788872326
7.541012299	-10.4192946	1.525038245
5.229556756	-9.26261448	2.384848992
5.234114927	-9.270688014	1.975847761
5.699400488	-9.277832486	1.910939332
6.692219025	-9.296238505	1.78656062
7.50553239	-10.43754377	1.524331692
5.193481049	-9.264996886	2.381348533
5.669883655	-9.293592758	1.910593625
6.648147237	-9.295028323	1.78239974
7.475784405	-10.46375344	1.524802688
5.150796571	-9.25530698	2.374785344
5.619397676	-9.274720583	1.903160687
6.594416486	-9.279942366	1.775619114
7.416631163	-10.44857956	1.519268635
5.110580399	-9.249714307	2.369316024
5.580760871	-9.275038476	1.899703618
6.568764622	-9.304166093	1.776389683
7.351346135	-10.42421531	1.512439491
5.0685696	-9.240538933	2.362971702
5.550763638	-9.289579707	1.89918494
6.510117388	-9.281402472	1.76822194
5.035996549	-9.248333492	2.361002606
5.48807349	-9.246047806	2.298188497
5.504645735	-9.27691857	1.893134948
6.473703484	-9.2899825	1.766064489
5.000638952	-9.250864026	2.357721012
5.447267346	-9.241779888	2.29296284
6.429424476	-9.287053776	1.761749472
4.975002806	-9.271321037	2.359033744
5.412466718	-9.247477145	2.290245585
6.385224458	-9.283940234	1.757434453
4.945158758	-9.283957219	2.358377378
5.379648044	-9.256429533	2.288364462
6.343891028	-9.284722645	1.753890003
4.911636069	-9.289595609	2.355971017
5.340959722	-9.255103459	2.283974938
5.809495324	-9.265259847	1.811613486
6.306497534	-9.291061362	1.751424278
4.869509507	-9.278700405	2.349407595
5.301357993	-9.25193036	2.279167465
5.779999818	-9.281365233	1.811286616
4.83786446	-9.287537947	2.347876231
5.253121905	-9.233302259	2.270597511
5.731600413	-9.261462856	2.217495313
5.743194653	-9.285629077	1.808671758
4.788733959	-9.262465003	2.337812821
5.219479146	-9.240008765	2.268298437
5.697515578	-9.269820652	2.215300907
4.752721406	-9.262354752	2.334093494
5.192541874	-9.258537265	2.268925479
5.659859483	-9.272201994	2.211709611
4.722954133	-9.27428301	2.333437361
5.158403609	-9.264171383	2.266417314
5.621226588	-9.272763003	2.207719673
4.683915394	-9.267828511	2.328186671
5.119075642	-9.260269011	2.261609606
5.581633107	-9.271496047	2.203330625
4.649773431	-9.270815669	2.325342576
5.086407373	-9.268215345	2.259728484
5.544111245	-9.273437481	2.199739328
4.617830788	-9.278048859	2.323592346
5.046720247	-9.263166216	2.254711917
5.505630221	-9.273551908	2.195749393
4.572492497	-9.258052066	2.315060297
5.00618215	-9.256241468	2.249277404
5.457744764	-9.257477952	2.187968602
5.927572434	-9.258547805	2.130347748
4.537626166	-9.258894288	2.311778705
4.978685735	-9.273279953	2.249695588
5.423376915	-9.264031109	2.185574641
5.890710888	-9.263435554	2.127303859
4.505785012	-9.265751622	2.310028475
4.944693063	-9.278154586	2.247187188
5.386557867	-9.266224309	2.182183135
5.850729658	-9.263203246	2.123118421
4.468856604	-9.261954794	2.305653016
4.914376022	-9.289823461	2.246351055
5.351736029	-9.271673596	2.179589382
5.816022513	-9.271129838	2.120835563
4.43578546	-9.265940231	2.303246421
4.871303763	-9.277151017	2.239662459
5.299390168	-9.24639097	2.169813742
5.773534124	-9.266431908	2.115698835
4.402313413	-9.268928415	2.300621193
4.831971972	-9.271239442	2.234645895
5.263243157	-9.248979721	2.166621558
5.736295963	-9.269909101	2.112464688
4.355699404	-9.250975011	2.697769822
4.368865316	-9.271798637	2.297995965
4.78553309	-9.251276697	2.226285032
5.228576924	-9.253992965	2.164028041
5.692408092	-9.262372529	2.106757424
4.316249175	-9.240641846	2.690881912
4.335027284	-9.273666836	2.29515187
4.749088869	-9.250256106	2.222522786
5.196805299	-9.264007528	2.16263162
5.655270089	-9.265546907	2.103523275
4.278122273	-9.232784703	2.684759322
4.715803374	-9.25519816	2.220223478
5.167882502	-9.279052019	2.162432066
5.619692551	-9.271099974	2.100859901
4.244122965	-9.23356623	2.68118781
4.682091258	-9.259150578	2.217715314
5.136545668	-9.289717497	2.161234966
5.585653525	-9.27904509	2.0987673
4.21256611	-9.239505513	2.679146948
4.650153595	-9.266478329	2.216043046
5.083501498	-9.260764737	2.150860658
5.547588332	-9.280127796	2.095152637
4.18061405	-9.244457076	2.676850977
4.605870294	-9.243653225	2.612899119
4.614727542	-9.266695761	2.212698749
5.048970716	-9.26513171	2.148267141
5.512075397	-9.28528484	2.092489262
4.137195574	-9.223715036	2.667156879
4.571903776	-9.246442734	2.609710509
4.58237722	-9.27291972	2.210817626
5.00700051	-9.255583881	2.142481673
5.474588591	-9.286928782	2.089064856
4.092764849	-9.200142786	2.656697454
4.528995744	-9.23083423	2.601371341
4.980435661	-9.274354722	2.143279661
5.432184387	-9.279957474	2.083738107
4.055933561	-9.193194322	2.651085082
4.497684041	-9.238584343	2.599654253
4.949193217	-9.284402568	2.142082562
5.387407672	-9.268570891	2.07746007
4.024997006	-9.19939351	2.649299326
4.463837591	-9.240991299	2.596465644
4.916561442	-9.29174797	2.140287032
5.341279818	-9.254445603	2.070611259
3.998294357	-9.21524704	2.650319759
4.431694996	-9.246774543	2.594258363
4.878007525	-9.287702951	2.135897985
5.30846928	-9.263121964	2.068898936
3.989492244	-9.272767853	2.663330259
4.400807553	-9.255073859	2.592786606
4.819915056	-9.237629491	2.529014227
4.837260316	-9.279163542	2.130511392
5.27322805	-9.267419296	2.066235563
4.001621912	-9.380126079	2.690626804
4.367015333	-9.257133564	2.589597996
4.783060388	-9.235977454	2.524532672
4.80201502	-9.280905965	2.127518764
5.236079197	-9.26816826	2.062811158
3.976215493	-9.400373135	2.692922774
4.332430237	-9.257316724	2.585918957
4.737377225	-9.216900149	2.515333531
5.2018569	-9.273913776	2.060528299
4.014666687	-9.573029093	2.738842192
4.297068953	-9.255616663	2.581749256
4.709077793	-9.231390537	2.51533353
5.16478284	-9.274390497	2.057103894
4.01868648	-9.665654912	2.761801903
4.262975678	-9.256428869	2.578315551
4.678100595	-9.240593067	2.513918515
5.114454336	-9.250669898	2.048352738
3.989382546	-9.678832343	2.76205701
4.226903152	-9.252709502	2.573655419
4.641875942	-9.23927112	2.509672757
5.077547085	-9.2508267	2.044928333
3.958572333	-9.688341294	2.761291688
4.190094	-9.247090708	2.568504627
4.608305029	-9.243032528	2.506842252
5.052083195	-9.256755745	2.452113218
5.044444705	-9.257739595	2.043025989
3.925563462	-9.692374559	2.758995717
4.150974185	-9.236026727	2.561882073
4.567429574	-9.231867305	2.500002022
5.020876023	-9.267073039	2.450754232
3.892567261	-9.696296555	2.756699746
4.115514654	-9.232780309	2.557467277
4.537371793	-9.242347896	2.499058601
4.98734636	-9.272997962	2.448262997
3.859941356	-9.701005647	2.754658882
4.072274176	-9.211669007	2.548146779
4.504313873	-9.246614627	2.496463892
4.951534247	-9.274507634	2.444639274
3.827677877	-9.706505648	2.752873127
4.043604965	-9.223231838	2.547901684
4.469581421	-9.247266259	2.492925762
4.915303639	-9.275023838	2.440789051
3.792953466	-9.705595366	2.749301618
4.012970302	-9.230259295	2.546429927
4.437828374	-9.253925366	2.491038916
4.874581875	-9.26678557	2.434674091
3.758270793	-9.704562381	2.745730105
4.005358368	-9.290601259	2.559674794
4.403571565	-9.255210805	2.48773658
4.841620796	-9.27306249	2.432409351
3.722590837	-9.700701113	2.741393273
3.989411851	-9.332262006	2.567768864
4.369763576	-9.25725279	2.484670278
4.791189046	-9.245498539	2.421311684
3.688688066	-9.701230884	2.738331978
3.986866909	-9.406045666	2.584692533
4.334747875	-9.256535126	2.480896352
4.75611923	-9.247161162	2.417914457
3.639137411	-9.660021515	2.723535721
4.013578369	-9.550506437	2.62099319
4.297730983	-9.25128208	2.475943202
4.710899139	-9.228743486	2.409308261
3.608807589	-9.669328598	2.723025504
4.026018146	-9.663003212	2.648463781
4.25997367	-9.244124834	2.470517991
4.681243156	-9.240546115	2.408628768
3.576107653	-9.672192981	2.720729534
4.004125692	-9.694125179	2.653614573
4.226341089	-9.245660626	2.467451688
4.648496464	-9.24616253	2.40636403
3.552402526	-9.699461265	2.725321475
3.975467451	-9.70905597	2.654350335
4.194745656	-9.251503502	2.465564844
4.614454821	-9.249049804	2.403419798
3.512735987	-9.68304587	2.717668239
3.934359501	-9.693359828	2.646746927
4.159566879	-9.249262377	2.461554884
4.582168077	-9.255307639	2.401381322
3.484319935	-9.697417318	2.718688671
3.904963905	-9.706283764	2.646992022
4.127212022	-9.253105038	2.459196207
4.545591835	-9.252711843	2.397078107
3.445475909	-9.682554213	2.711545649
3.866908267	-9.697507157	2.6413508
4.079541228	-9.222176082	2.44763839
4.511208224	-9.254356362	2.393907377
3.406610415	-9.677368382	3.135847482
3.414147298	-9.688519687	2.710270111
3.841414453	-9.720143948	2.644294077
4.043030416	-9.215960941	2.442685244
4.470920062	-9.243601491	2.387565919
3.3775341	-9.689579646	3.136432082
3.799908242	-9.702095401	2.636200007
4.011635663	-9.221192102	2.440798161
4.441697504	-9.255518604	2.387112925
3.346230928	-9.695376815	3.134970578
3.770124849	-9.713707403	2.636200006
3.996799156	-9.264686886	2.449053643
4.41076847	-9.26382539	2.385754175
