x	y	z
5.322542972	-2.442660894	-0.480959617
5.33235671	-2.45088377	-0.698026245
5.629596985	-2.106017071	-0.832439964
4.888880375	-2.473994042	0.203690764
4.861909699	-2.462584342	0.003709697
4.791779265	-2.429585479	-0.193245893
5.317604589	-2.463891817	-0.697081334
5.626815752	-2.12467816	-0.832988684
4.847301607	-2.469743773	0.401318446
4.86435272	-2.480356315	0.202984926
4.834735895	-2.467487995	0.003694722
4.754934764	-2.429271216	-0.192059671
5.339710393	-2.494062056	-0.700978941
5.611940374	-2.138756149	-0.831754033
4.814860115	-2.471850244	0.39925851
4.825609904	-2.47928485	0.201684681
4.792460483	-2.464473937	0.003668176
4.710140736	-2.424637215	-0.190549945
4.832548868	-2.4908507	-0.394382248
5.33203374	-2.510432273	-0.700978941
5.5859374	-2.148495658	-0.82887316
4.763849453	-2.464158832	0.395653621
4.790469889	-2.479836479	0.200533059
4.749360923	-2.460763625	0.003640949
4.692034627	-2.433554863	-0.190118586
4.762039112	-2.473028465	-0.38924537
5.336866271	-2.532739232	-0.702632493
5.643298056	-2.430366116	-0.79027528
5.573779269	-2.163472529	-0.828050022
4.732388459	-2.466318089	0.393667266
4.738537401	-2.471415869	0.19867557
4.720513371	-2.464216533	0.003624612
4.631403528	-2.420168145	-0.187961822
4.727034463	-2.473292607	-0.387002507
5.331758017	-2.550386179	-0.702986842
5.60124482	-2.432654182	-0.785427752
5.567115606	-2.180562533	-0.828050022
4.677119277	-2.455789841	0.389694557
4.706163637	-2.472926288	0.197635394
4.683724393	-2.463326351	0.00360215
4.691190402	-2.472900314	-0.384687284
5.53496602	-2.422122901	-0.553136865
5.321225095	-2.565438073	-0.702632493
5.564682691	-2.43709454	-0.781345668
5.576060124	-2.203821415	-0.830382173
4.643116375	-2.456137706	0.387487486
4.677357868	-2.476131798	0.196743798
4.646985304	-2.462233926	0.003579687
4.665083645	-2.4774573	-0.383167932
5.512931683	-2.432660109	-0.551678102
5.319581204	-2.584789025	-0.703459268
5.519980804	-2.437727439	-0.776115421
5.589514438	-2.228990069	-0.833400254
4.612676212	-2.458176146	0.385574684
4.626533958	-2.467427772	0.194923473
4.618236869	-2.465177398	0.003563351
5.479967138	-2.438227099	-0.549125295
5.304491765	-2.597603389	-0.702514357
5.474421415	-2.437705727	-0.770757619
5.599191118	-2.252783323	-0.835869615
4.582267809	-2.460051216	0.383661882
4.604857013	-2.474042799	0.19432908
4.591275911	-2.468914993	0.003548376
5.487906973	-2.461957382	-0.550675195
5.31608787	-2.623533063	-0.705112762
5.445201177	-2.444739866	-0.767696026
5.600513477	-2.273303615	-0.837104265
4.552768072	-2.462237366	0.381822661
4.558576033	-2.467229811	0.192694512
5.002154478	-2.477054569	0.153965995
4.547629279	-2.463460552	0.003520469
4.89258398	-2.426837472	-0.247332213
5.412659563	-2.444421296	-0.326532716
5.488493828	-2.482475794	-0.55149577
5.407857387	-2.447936519	-0.763486329
5.589846107	-2.288973568	-0.836555486
4.491771614	-2.447089968	0.377334968
4.534314729	-2.472115021	0.191988659
4.947126251	-2.468733101	0.152504638
4.495281613	-2.452971857	0.003485754
4.951870176	-2.472395835	-0.049653776
4.867244252	-2.4329033	-0.246427414
5.400591275	-2.458946888	-0.326258207
5.404741868	-2.464595804	-0.54383735
5.394907956	-2.462045451	-0.762720887
5.580966265	-2.305355965	-0.836281126
4.477212153	-2.454459461	0.564774554
4.460636892	-2.447904648	0.375348613
4.498680185	-2.470621073	0.190799874
4.928812407	-2.478509909	0.152173773
4.46056862	-2.451819124	0.003464653
4.903170998	-2.466902782	-0.049241118
4.819608403	-2.427601721	-0.244391557
5.378502585	-2.4688394	-0.325379844
5.385527016	-2.477755948	-0.762465778
5.562895247	-2.317895357	-0.834634905
4.487932604	-2.478273692	0.567083339
4.453105888	-2.461578162	0.375348614
4.458725308	-2.466513534	0.189425346
4.856984392	-2.461088318	0.150188536
4.42240552	-2.44853918	0.003440829
4.87595793	-2.471986141	-0.049043756
4.782741274	-2.427456578	-0.24289861
5.368002494	-2.48967641	-0.761062565
5.556670635	-2.335335018	-0.834772113
4.422932884	-2.46011744	0.74762575
4.4733595	-2.488165676	0.566203813
4.397609635	-2.448545187	0.371302322
4.411854664	-2.45829277	0.187753615
4.819140868	-2.460522838	0.149251059
4.806906998	-2.45554571	-0.048424765
4.757483523	-2.433021252	-0.241993797
5.381003975	-2.515795283	-0.763996603
5.555863704	-2.35507787	-0.835732404
4.436940626	-2.485763105	0.751279155
4.431886858	-2.482931871	0.561916034
4.369200871	-2.450317733	0.369536654
4.784395542	-2.458149317	0.345200534
4.382505682	-2.459589643	0.186824885
4.795569382	-2.467065023	0.148754761
4.780679686	-2.460671353	-0.048236377
4.699379627	-2.421523419	-0.239415061
4.802417309	-2.477481761	-0.443799012
5.368774405	-2.530177888	-0.763358716
5.553166446	-2.37405881	-0.836418335
4.425847446	-2.497419054	0.750694613
4.389623408	-2.476978497	0.557518344
4.329534258	-2.445562827	0.3668146
4.751130169	-2.459511406	0.343343253
4.340141702	-2.453353188	0.185338897
4.75336626	-2.463825542	0.147679419
4.740263433	-2.458293657	-0.047904458
4.676856187	-2.428104325	-0.238645968
4.770917112	-2.479793399	-0.44158902
5.368153752	-2.55004185	-0.764379266
5.554952745	-2.395006295	-0.837790195
4.376021052	-2.487034358	0.743534008
4.362128355	-2.479138474	0.554989676
4.302073993	-2.447491728	0.365122514
4.724095924	-2.46392328	0.341934259
4.302199235	-2.449352355	0.184038666
4.703253666	-2.456185976	0.146355928
4.706997176	-2.459395852	-0.047644302
4.750926146	-2.487945519	-0.44044312
5.35851594	-2.565642303	-0.764124158
5.543036981	-2.410062537	-0.837104265
4.991011817	-2.85802895	-0.844061565
4.386729842	-2.511261857	0.938107949
4.341755062	-2.485213405	0.739003817
4.330348706	-2.478684175	0.551911276
4.268585347	-2.445804515	0.362915471
4.657326178	-2.447302999	0.337643261
4.64704071	-2.445003933	0.144839436
4.668460255	-2.457522292	-0.04733032
4.700959586	-2.480186467	-0.43651425
5.592593948	-2.449943689	-0.619223403
5.367591438	-2.590260344	-0.766547921
5.535617165	-2.427056966	-0.837104266
4.374745822	-2.522252822	0.93719558
4.318683086	-2.48962874	0.736373404
4.304640417	-2.481533377	0.549602489
4.236012018	-2.444433668	0.360781954
4.573063956	-2.420958279	0.332071389
4.607721917	-2.442395594	0.143846811
4.626445581	-2.453561555	-0.046980456
5.538638212	-2.446587763	-0.614077496
5.348024111	-2.60107623	-0.764889541
5.542640123	-2.45043704	-0.839299207
4.975092646	-2.889593267	-0.844351959
4.315970974	-2.506040207	0.926247041
4.299047453	-2.495912786	0.734327477
4.272079283	-2.480255784	0.546414118
4.192277631	-2.436371589	0.357692078
4.518946241	-2.410087103	0.328677024
4.588743861	-2.45039921	0.143488363
4.597728763	-2.456434784	-0.046765156
5.513838541	-2.455877644	-0.612160432
5.512478213	-2.457347487	-0.835869614
4.961079756	-2.901845617	-0.843480776
4.287892289	-2.507358251	0.921867591
4.280267522	-2.502599026	0.732427755
4.245573289	-2.482313892	0.543995421
4.169290687	-2.440154382	0.356367813
4.493949258	-2.414493267	0.32739612
4.55831628	-2.452152877	0.142771483
4.575202055	-2.462472263	-0.04661265
5.496294753	-2.468299011	-0.611050534
5.495878351	-2.470187023	-0.834497754
4.259846272	-2.50852751	0.917488199
4.263192535	-2.510197686	0.730820278
4.212242581	-2.480198001	0.540697138
4.459313303	-2.413543778	0.325410749
4.529679033	-2.454695427	0.142109737
4.976337039	-2.46658206	0.100340942
4.540374671	-2.461722154	-0.046334553
4.933276561	-2.447598599	-0.100549256
5.433410277	-2.460117538	-0.604895638
5.487371694	-2.486627724	-0.834360544
4.239444678	-2.514062196	0.914751035
4.212074009	-2.497532905	0.723367373
4.181530439	-2.479422023	0.537728708
4.498369129	-2.451740718	0.515600062
4.462402123	-2.432945666	0.326179291
4.501946635	-2.457564564	0.141475559
4.939229025	-2.467093993	0.099744851
4.495064303	-2.455029668	-0.045948807
4.908752439	-2.454226762	-0.100202409
4.846588223	-2.425896304	-0.297985787
5.37693115	-2.452183303	-0.381438313
5.359767729	-2.446616328	-0.597529934
5.47881624	-2.503039443	-0.834223335
4.211452077	-2.514958443	0.910371642
4.185705964	-2.499286247	0.720152419
4.139768331	-2.47185683	0.533330958
4.493442842	-2.466966399	0.515900469
4.407682357	-2.420683843	0.322720881
4.910955779	-2.469248751	0.30058202
4.445333451	-2.44439214	0.139931486
4.897699134	-2.465153941	0.099058451
4.456846705	-2.451938919	-0.045634825
4.862804808	-2.449931216	-0.099417438
4.822184004	-2.432210317	-0.296942735
5.350342219	-2.459913715	-0.380085704
5.30704721	-2.442252623	-0.592484938
5.492703924	-2.529781463	-0.837515834
4.170854999	-2.508106321	0.903255085
4.133084462	-2.485098448	0.712407272
4.108314264	-2.470205136	0.530252615
4.481499226	-2.478332988	0.515399789
4.403727906	-2.436127184	0.322977061
4.874854539	-2.469862781	0.29883477
4.405458965	-2.440098391	0.138911293
4.838394492	-2.453937657	0.098010788
4.833868651	-2.453976186	-0.098979314
4.787105615	-2.432969093	-0.295240904
5.292309477	-2.455173419	-0.591677713
5.493003018	-2.550375256	-0.838750486
4.202608447	-2.544789147	1.101524155
4.135386537	-2.504084473	0.897233406
4.104284561	-2.484957796	0.708753923
4.455129035	-2.479794811	0.70288887
4.081161036	-2.470957669	0.527723948
4.467790629	-2.488681264	0.51469884
4.377054829	-2.438939787	0.321568067
4.814783951	-2.458020078	0.295613258
4.386603739	-2.447271356	0.13855286
4.787217841	-2.446475441	0.097125696
4.79872295	-2.454679641	-0.098413405
4.73962547	-2.427163654	-0.292770499
5.279344471	-2.468869664	-0.591072308
5.495918357	-2.572254235	-0.840396707
4.171453821	-2.543447186	1.095398467
4.120129531	-2.512153307	0.895591121
4.42967491	-2.481527616	0.891080255
4.072146086	-2.482604152	0.704515974
4.433674349	-2.485700125	0.700703824
4.059134052	-2.474671138	0.525854926
4.40199643	-2.469757905	0.507989741
4.354757012	-2.444053812	0.320479299
4.782358301	-2.459991507	0.294084428
4.362516938	-2.45141351	0.13802898
4.757466745	-2.449708123	0.096674116
4.763619033	-2.455190626	-0.097847497
4.780976806	-2.470371231	-0.492690187
5.49337613	-2.591639234	-0.841219788
4.13868437	-2.540917187	1.088835281
4.092293316	-2.512435637	0.891211669
4.434908128	-2.502366309	0.893673117
4.043433447	-2.482147139	0.700862627
4.411363526	-2.491010085	0.698382283
4.036275239	-2.477753039	0.523875932
4.384003524	-2.477377414	0.50678811
4.313356893	-2.438249918	0.317981566
4.734008973	-2.453516891	0.291572748
4.33757687	-2.454938622	0.137477518
4.710878352	-2.444032707	0.095879333
4.709923062	-2.445832916	-0.096898233
4.783091812	-2.490085754	-0.493693095
5.269488159	-2.503778427	-0.591677712
5.48897741	-2.61018202	-0.841768567
4.116759371	-2.544880047	1.085116186
4.061985408	-2.511020194	0.88628481
4.405802171	-2.503794367	0.889351663
4.02486003	-2.487778644	0.698962849
4.382172688	-2.492288827	0.694968189
4.004981888	-2.475492012	0.520797533
4.337469796	-2.468668569	0.502281999
4.29978574	-2.448015449	0.31753325
4.700791416	-2.454625828	0.289989292
4.658167669	-2.434852712	0.094958114
4.689994612	-2.453782189	-0.096642656
5.271652237	-2.524660261	-0.592787611
5.48540965	-2.629150268	-0.842454497
4.078281187	-2.538419972	1.07702152
4.024212362	-2.504766306	0.87971572
4.381003268	-2.507514067	0.885894533
3.992851491	-2.484956549	0.694724957
4.345279282	-2.488980376	0.690325046
4.314337597	-2.473057465	0.500479554
4.271477732	-2.44928181	0.315996195
4.667611825	-2.455554219	0.288405864
4.640944457	-2.444007523	0.094759421
4.650602921	-2.451375447	-0.09598547
5.278217836	-2.547741398	-0.594402003
5.479993499	-2.647259386	-0.842866008
4.014249993	-2.515684978	1.062144917
3.980684596	-2.494650049	0.871869247
4.347689737	-2.506186185	0.880708809
3.946647738	-2.473031661	0.688002745
4.310164261	-2.486459403	0.685955072
4.291219965	-2.477327856	0.49867711
4.253573144	-2.456386083	0.315227653
4.63270638	-2.455367223	0.286713211
4.60869402	-2.445113738	0.094253646
4.62981485	-2.458597901	-0.095711646
5.273060229	-2.565228413	-0.594704734
5.467393148	-2.661891299	-0.842180078
3.984231808	-2.513929883	1.056238095
3.956381695	-2.496357471	0.868219714
4.311870675	-2.503194124	0.875004525
3.925655549	-2.476682685	0.685664633
4.281957917	-2.487727596	0.682677532
4.231129598	-2.459975571	0.492568826
4.596181772	-2.452039019	0.475371913
4.214098147	-2.450861062	0.31285801
4.60313131	-2.457810889	0.285348175
4.565899097	-2.440389375	0.093531119
4.577288313	-2.448736894	-0.094780636
5.243726329	-2.570882385	-0.592283117
5.458311684	-2.678216354	-0.842042928
4.029397609	-2.561423912	1.25972456
3.887547709	-2.469632825	1.032610573
3.933766062	-2.498993801	0.864935198
4.285464627	-2.505474434	0.871201632
3.894657161	-2.473863056	0.681572834
4.254639699	-2.489346492	0.679536605
4.193510921	-2.455349345	0.489064073
4.573724978	-2.45811379	0.47382705
4.55160104	-2.448271347	0.282618075
4.481801309	-2.413147757	0.091959627
4.542469416	-2.448063775	-0.094214728
4.910072709	-2.421855985	-0.152735707
5.291115839	-2.614281727	-0.598538922
5.436750263	-2.688363648	-0.839985136
3.997088463	-2.5581372	1.252071325
3.856114214	-2.46630135	1.026266137
3.882181837	-2.482973665	0.855263931
4.265874742	-2.511614242	0.868781622
4.236740698	-2.496353163	0.677897836
4.167959344	-2.457590522	0.48696122
4.533759485	-2.454591214	0.470464633
4.509829532	-2.443671548	0.280488609
4.496348544	-2.438803785	0.092411207
4.966739391	-2.464997527	0.048098316
4.505062058	-2.445769126	-0.09359405
4.847121658	-2.40932254	-0.151006726
5.273273856	-2.625624643	-0.597429025
3.966462756	-2.555724064	1.244928302
3.848529458	-2.478119974	1.026266136
4.251637056	-2.520026285	1.056393316
3.84395952	-2.475177334	0.848512333
4.240357534	-2.514141054	0.86515164
4.201799789	-2.49316338	0.673527861
4.139011989	-2.457666379	0.484457796
4.507847144	-2.458475775	0.46855624
4.470759116	-2.440274049	0.278522966
4.948286277	-2.474141049	0.250061532
4.473929266	-2.444437375	0.092104131
4.949315455	-2.475303504	0.0480029
4.86026364	-2.434478689	-0.151648117
5.405989364	-2.71456025	-0.837790196
3.935079065	-2.552620978	1.237530175
3.799969575	-2.463376175	1.015327376
4.246404941	-2.534561884	1.057020359
3.817372006	-2.474657574	0.84431539
4.209790864	-2.513505473	0.860484476
4.172871093	-2.493339587	0.670113766
4.10241785	-2.452992226	0.481053179
4.487191258	-2.465101635	0.467193083
4.447501855	-2.445319157	0.277540116
4.881791567	-2.459643929	0.247081389
4.431371528	-2.438868126	0.091381604
4.88812008	-2.463474148	0.047482448
4.805475706	-2.425506093	-0.15017013
4.855347079	-2.452698817	-0.351101037
3.911037437	-2.554107941	1.232428016
3.79811419	-2.478755879	1.016858856
4.208434853	-2.529442005	1.049495628
4.151412427	-2.49595815	0.850113031
4.121063042	-2.479572366	0.66301247
4.464380332	-2.468293549	0.653671344
4.466537083	-2.471623979	0.465829954
4.415521142	-2.445407265	0.276011287
4.85551647	-2.465112614	0.246133169
4.401132213	-2.439847949	0.090911964
4.842200971	-2.458990141	0.04710946
4.770390515	-2.426189842	-0.149305639
4.811336708	-2.449023137	-0.348460195
3.882176598	-2.552284264	1.22579521
3.763579686	-2.47271538	1.009639303
4.176393028	-2.527657367	1.043433957
4.138679947	-2.505622248	0.849075909
4.099033235	-2.483477218	0.660690928
4.469785029	-2.489217379	0.655577856
4.408481031	-2.457194542	0.460559146
4.394917567	-2.451645821	0.275192259
4.829254074	-2.470443181	0.245184948
4.374421291	-2.442614939	0.090514572
4.816830034	-2.464724202	0.046935974
4.742463907	-2.430328443	-0.148664248
4.7682827	-2.445556229	-0.345883784
3.888470469	-2.575397273	1.425571232
3.863039846	-2.556711482	1.222223701
3.751092656	-2.481020335	1.008326689
4.14941211	-2.52875377	1.038626484
4.112471331	-2.507028724	0.845273014
4.438569484	-2.486650163	0.842804775
4.055030544	-2.473856584	0.654818738
4.432714291	-2.486420202	0.651256461
4.37573863	-2.456569989	0.457923755
4.364742236	-2.45240073	0.273772625
4.792349452	-2.470143894	0.243694862
4.777249174	-2.462994025	0.046623705
4.69412849	-2.423770328	-0.147381452
4.743026461	-2.451010876	-0.344595578
3.868615835	-2.579357076	1.421186598
3.835865714	-2.555684195	1.216101112
3.731280174	-2.484404852	1.005045095
4.115796223	-2.525616585	1.032146862
4.070344214	-2.498507939	0.838185843
4.437793496	-2.504134619	0.844112204
4.033072273	-2.477470821	0.652497139
4.40174829	-2.486834493	0.647824783
4.349110508	-2.459199345	0.455924468
4.34155571	-2.456928105	0.272789775
4.741306909	-2.462274747	0.241482322
4.741274458	-2.462888364	0.04634613
4.652972163	-2.420629626	-0.146321756
4.690342372	-2.442047326	-0.341310647
3.840039065	-2.577356924	1.413586649
3.802310253	-2.550205675	1.207937544
3.721208953	-2.494210742	1.00438873
4.079742971	-2.520755158	1.025040082
4.040038598	-2.497002396	0.833518682
4.400070039	-2.500676598	0.838392184
4.005232454	-2.477325928	0.649219657
4.363062565	-2.482667537	0.643249232
4.314718795	-2.457252944	0.453107314
4.703775345	-2.457999659	0.434006863
4.284550257	-2.442052956	0.269677489
4.710717161	-2.464767928	0.240308334
4.687626071	-2.453311463	0.045895075
4.651721677	-2.438141642	-0.146516961
3.813095635	-2.576276624	1.406571417
3.76321508	-2.540758242	1.197988336
4.100736538	-2.549852937	1.221707517
3.713539276	-2.505615518	1.00438873
4.061195586	-2.526544377	1.022322824
4.01396133	-2.497936364	0.829715844
4.376965238	-2.505342421	0.835450456
3.969863612	-2.472320416	0.644713068
4.314116996	-2.4723682	0.637148458
4.275197058	-2.452145811	0.449744925
4.693566164	-2.471026216	0.433762335
4.258852771	-2.444747098	0.268530845
4.669551942	-2.461506805	0.238592481
4.664155576	-2.459286301	0.045738937
4.637148185	-2.448667448	-0.146293861
3.783823256	-2.573442083	1.398679169
3.734610262	-2.538160627	1.191355531
4.078925658	-2.553676558	1.217537934
3.696148507	-2.510417826	1.001763502
4.03187762	-2.525495053	1.01688831
3.97873569	-2.492981413	0.82401156
4.329942061	-2.496094117	0.827932702
3.947153119	-2.475015376	0.642254973
4.299638912	-2.481625599	0.636131662
4.25213219	-2.456284061	0.448109165
4.663070235	-2.473271907	0.431643241
4.63462738	-2.461295961	0.237192725
4.610667522	-2.44919072	0.045287883
4.566073596	-2.429079982	-0.144286019
3.761706218	-2.575314209	1.39341763
3.708450842	-2.537049363	1.185488049
4.056309604	-2.556873151	1.2131229
3.652986785	-2.497514034	0.992137472
4.00508615	-2.525854567	1.012080838
3.956073978	-2.495716681	0.820900137
4.308612555	-2.50144106	0.825317845
3.919437028	-2.474421371	0.638977432
4.279141967	-2.487327931	0.634225148
4.223056578	-2.456798572	0.445837246
4.635242498	-2.476763044	0.429768675
4.612079902	-2.467492074	0.236425107
4.586380318	-2.454360307	0.045123072
3.727013957	-2.568392547	1.383479269
3.684722746	-2.537446634	1.18038589
4.02389046	-2.553721627	1.205764708
3.948610355	-2.507202835	0.999748518
4.309771601	-2.518310446	1.016277187
3.924287732	-2.49252775	0.815887269
4.271109933	-2.497219543	0.819597826
4.262074695	-2.494932587	0.632827062
4.183706817	-2.451116815	0.442474857
4.563556525	-2.456486887	0.423818909
4.57722697	-2.466937328	0.235025336
4.556823873	-2.456556537	0.044906216
3.694757534	-2.562917664	1.374417815
3.666590029	-2.541578313	1.177069488
3.99152874	-2.550395356	1.198406513
3.874984845	-2.477167598	0.983026795
4.283445596	-2.520587683	1.011888138
3.891728282	-2.488636935	0.810701545
4.248125827	-2.501301405	0.816656098
4.246710459	-2.503463261	0.63168319
4.155582536	-2.451795588	0.440293835
4.531466439	-2.457173639	0.421536797
4.538031771	-2.463809044	0.233399799
4.522903231	-2.456208786	0.044645993
3.671979123	-2.563838889	1.36886409
3.642915919	-2.541749918	1.171967331
3.941288682	-2.53535585	1.185652312
3.892036331	-2.504921712	0.989297442
4.263047392	-2.526223987	1.008895509
3.863370933	-2.487235493	0.806380089
4.226005992	-2.505768791	0.813877807
4.209157813	-2.498758362	0.627234716
4.111226502	-2.442660095	0.436386154
4.50816236	-2.46246445	0.420069747
4.497145523	-2.459505065	0.23168396
4.494291978	-2.458555605	0.044437813
3.637493558	-2.556396212	1.358925729
3.620066662	-2.542355753	1.167120281
3.895246903	-2.522667404	1.174124415
3.794877656	-2.458887933	0.966514161
4.24686228	-2.534269502	1.006900539
3.82596725	-2.479791125	0.800157245
4.183569327	-2.497985742	0.807177172
4.141876532	-2.476033779	0.618337769
4.485741666	-2.468115946	0.418684178
4.472079101	-2.463649898	0.23078089
4.445565161	-2.449650454	0.044030124
3.618703241	-2.559812125	1.354833396
3.942942367	-2.570760857	1.383195626
3.592510711	-2.539496719	1.160742584
3.846072495	-2.507602674	1.161615544
3.778306336	-2.464641802	0.964214912
4.207150258	-2.528107645	0.999319306
3.796069907	-2.476984761	0.795490082
4.156439851	-2.49911669	0.803418325
4.107067154	-2.472359324	0.614270587
4.482163274	-2.481229168	0.607448402
4.456354661	-2.469787958	0.416646593
4.447029652	-2.467664278	0.229877805
3.589798876	-2.555925827	1.346941145
3.916588961	-2.570736839	1.376711
3.56658213	-2.537613839	1.154875102
3.806753075	-2.498643873	1.152049835
3.761735694	-2.470317272	0.961915722
4.19015213	-2.535422872	0.99712478
4.125967034	-2.498060865	0.799005733
4.45334663	-2.480100877	0.795037235
4.076560527	-2.471065718	0.610838908
4.468458712	-2.491583321	0.606624189
4.433962179	-2.475189522	0.415261023
4.41763745	-2.469111098	0.228748967
4.392919327	-2.455899596	0.043657137
3.561730077	-2.552443713	1.339341198
3.879866675	-2.563699523	1.366561164
3.521046159	-2.521521534	1.142629922
3.799878321	-2.510845475	1.152295166
3.745981596	-2.476453412	0.959825507
4.140513774	-2.522773407	0.987149585
4.085431761	-2.490679321	0.792631971
4.44744016	-2.494718616	0.79534545
4.055413976	-2.475292475	0.608805317
4.444342681	-2.496041352	0.604387047
4.398547072	-2.473149775	0.412652903
4.393501702	-2.473341426	0.227891048
3.541472495	-2.554407864	1.334664376
3.849615481	-2.560712023	1.358666884
3.785699805	-2.518196248	1.150332981
3.737552157	-2.487392536	0.959616474
4.11939051	-2.52726576	0.983957401
4.053388714	-2.488233773	0.787892508
4.415678411	-2.494742957	0.791030432
4.028364427	-2.475777498	0.605882065
4.411598073	-2.495485649	0.600972416
4.361451867	-2.469934116	0.409881793
4.339835231	-2.460694313	0.225497892
3.524332372	-2.558519053	1.331156761
3.818622265	-2.557029565	1.350490677
3.764262102	-2.520628732	1.146163279
4.132251792	-2.550546479	1.178649897
4.080772312	-2.520837605	0.976575725
4.029791167	-2.490802413	0.784787402
4.395981377	-2.501437036	0.788872923
3.987011905	-2.467246748	0.600798088
4.378899032	-2.494752776	0.597557844
4.314895048	-2.461082229	0.406214111
4.298433279	-2.454676656	0.223736902
3.501022835	-2.558035751	1.325310619
3.796439262	-2.559079924	1.3454157
3.746060879	-2.525121196	1.142974671
4.105423893	-2.551414169	1.173224804
4.058042074	-2.524029651	0.972984664
4.00789139	-2.494292321	0.782009052
4.349709991	-2.492803872	0.78193816
3.963428485	-2.469501114	0.598383206
4.340216906	-2.490383516	0.593319001
4.271026433	-2.453457695	0.402790957
4.277026813	-2.459883727	0.223014434
3.472356644	-2.553467706	1.317418369
3.775073491	-2.561557091	1.340622769
3.720647675	-2.524626708	1.137578663
3.983069034	-2.492345586	1.140438673
4.019551162	-2.517224341	0.965603043
3.956748376	-2.479336992	0.77351074
4.326638423	-2.497246511	0.779164221
3.944910734	-2.474796546	0.596730907
4.292145636	-2.480334879	0.587784949
4.23846103	-2.452075665	0.400427364
3.447595165	-2.551592449	1.310987625
3.748182776	-2.560139496	1.333856212
3.702477807	-2.528921387	1.134390171
3.980337094	-2.5076617	1.141853925
3.980311834	-2.509684244	0.95802181
3.9349387	-2.482515571	0.770732448
4.298454937	-2.498591599	0.775465632
4.273358152	-2.486997698	0.586254242
4.202499856	-2.44850995	0.397737735
3.426712655	-2.552445975	1.306018503
3.726080144	-2.561842378	1.328781352
3.679523529	-2.529832728	1.129729923
3.930773279	-2.493314741	1.129824515
3.9279206	-2.493524623	0.94724857
4.310130991	-2.5187603	0.967388649
3.90898315	-2.482939012	0.767137035
4.27542059	-2.502782439	0.77269175
4.257997479	-2.495577391	0.585194532
4.168319458	-2.445755561	0.395211123
3.408152948	-2.554916307	1.301926168
3.691379402	-2.554698069	1.319195376
3.639857956	-2.519041587	1.119918996
3.914915375	-2.500131986	1.127465724
3.850896174	-2.461236009	0.930490186
4.266001283	-2.510560707	0.95920815
3.883062625	-2.483226593	0.763541566
4.260061665	-2.511371613	0.771304752
4.229796314	-2.496514809	0.582368674
4.140202777	-2.446363829	0.393255048
3.379686116	-2.549809084	1.294033918
3.662268781	-2.551204007	1.311583028
4.005680276	-2.571184622	1.347718116
3.612225776	-2.516343155	1.113787226
3.886791044	-2.498992265	1.121568915
3.793884574	-2.441224317	0.918519904
4.254056416	-2.521134182	0.958256922
3.843904848	-2.474833622	0.757331239
4.212404898	-2.500723503	0.764061773
4.187971216	-2.489185052	0.577658835
3.359661099	-2.550912996	1.289357098
3.629286637	-2.544801298	1.302560913
3.953326324	-2.554739134	1.332734343
3.587819807	-2.515725467	1.108636434
3.879106057	-2.51090504	1.121568916
3.784732377	-2.451786742	0.91812091
4.229441272	-2.52411139	0.954452059
4.171638201	-2.4938629	0.758051598
4.174350327	-2.498451862	0.576834622
3.612839693	-2.549838214	1.299459564
3.930952739	-2.557411026	1.327830551
3.572164206	-2.521130781	1.106183702
3.852658442	-2.510591264	1.116143937
3.800995093	-2.478909994	0.923906497
4.192225472	-2.519375983	0.947793562
4.130107373	-2.486266071	0.751887287
4.111382288	-2.47792756	0.569181206
3.576841867	-2.540907675	1.289309728
3.911015023	-2.561551365	1.323744175
3.539912214	-2.514673651	1.098580177
3.832749892	-2.514403591	1.112605808
3.745043412	-2.458829268	0.912135769
4.157599126	-2.515960945	0.941705782
4.104716296	-2.488169506	0.748651052
4.076594621	-2.474042732	0.565413299
3.558883653	-2.544614827	1.285644518
3.879842732	-2.558178445	1.315843581
3.526660438	-2.521575192	1.096863324
3.779607415	-2.496160094	1.09939706
3.744839441	-2.475170125	0.9139313
4.135608718	-2.520019859	0.938471635
4.07850959	-2.48942612	0.74526074
4.06390097	-2.483430921	0.564706863
3.537821615	-2.545994134	1.280851589
3.84471979	-2.551978146	1.3065809
3.741179849	-2.487299119	1.090433952
4.122018173	-2.525252305	1.124026724
3.724175302	-2.47796242	0.910739233
4.099407364	-2.515239645	0.932003339
4.05570106	-2.492614654	0.7424868
4.031735915	-2.480795201	0.561292234
3.518338769	-2.548393946	1.27662252
3.822472104	-2.554139467	1.301677224
3.749683258	-2.509575185	1.095151303
4.101816627	-2.53021627	1.120629498
4.065780204	-2.511809129	0.926105759
4.029550616	-2.493607127	0.73909643
4.000469465	-2.478508779	0.557995381
3.494997979	-2.547872255	1.270983683
3.803440861	-2.558336443	1.297863124
3.730683131	-2.513465642	1.091849203
4.101481289	-2.547413736	1.122667856
4.012205744	-2.49575102	0.9156424
3.999239047	-2.491849936	0.734935547
3.975153223	-2.479732862	0.555522741
3.474014338	-2.548934221	1.266190752
3.780436305	-2.559743254	1.292686936
3.70365205	-2.511808397	1.086188195
4.068046031	-2.54397514	1.115646907
3.985393513	-2.496063229	0.911266765
3.976509894	-2.49465634	0.732161608
3.451513772	-2.548751495	1.260833846
3.76222962	-2.564284834	1.289145348
3.673455912	-2.507817561	1.079583878
4.009118802	-2.524267816	1.101605123
3.971073682	-2.504089254	0.90974482
3.943776451	-2.491014975	0.727538431
3.419036246	-2.541015037	1.251811846
3.728956238	-2.558396133	1.280427572
3.648925728	-2.507517744	1.074630496
3.959400929	-2.509959274	1.090054579
3.942652092	-2.503105698	0.904988726
3.907768313	-2.485075528	0.722298767
3.395858606	-2.539999454	1.246173011
3.709213758	-2.561622936	1.276341078
4.030737647	-2.566219274	1.30379437
3.630825875	-2.511514049	1.071564195
3.893387367	-2.484889712	1.073974435
3.888631238	-2.48558069	0.89433511
3.674476103	-2.554317898	1.267078398
3.972489236	-2.546295532	1.287473905
3.598380785	-2.505427702	1.064252137
3.867718238	-2.485238948	1.068991846
3.801733151	-2.446497429	0.876071713
3.642971567	-2.549030415	1.258905409
3.950878331	-2.549578511	1.282999024
3.566802999	-2.499723843	1.057175992
3.824909405	-2.474344383	1.059253046
3.79915296	-2.461352117	0.877213199
3.617041176	-2.547452078	1.25263953
3.934947695	-2.556431601	1.280366645
3.789549922	-2.46799459	1.05155272
3.777604874	-2.463878694	0.873979052
3.587229967	-2.542956515	1.245011447
3.91013139	-2.557402689	1.274838791
3.792549563	-2.486551708	1.054496952
3.561396926	-2.541096502	1.238745568
3.886151644	-2.558776017	1.269574033
3.75076104	-2.475640326	1.044984766
3.536390632	-2.539663096	1.232752081
3.854963733	-2.555229378	1.261940346
3.745581887	-2.488752992	1.045664256
3.515325788	-2.540918648	1.228120682
3.826241727	-2.553121873	1.255096301
3.71445035	-2.484528381	1.039096301
3.480281655	-2.531880322	1.218585608
3.796768171	-2.550324655	1.247988926
3.71812167	-2.50352842	1.04226703
3.460076363	-2.533450991	1.21422672
3.774540804	-2.552233874	1.243250715
3.695910699	-2.505086994	1.038190313
3.436021469	-2.532067739	1.208505629
3.754729988	-2.555659477	1.239302263
3.667288598	-2.502141184	1.032301849
3.717425142	-2.546991587	1.229562626
3.643537094	-2.502352097	1.027772253
3.693710087	-2.547430151	1.224297985
3.623824818	-2.505210234	1.024375027
3.673197636	-2.54994802	1.220086205
3.606527904	-2.509640325	1.021657177
3.635306783	-2.540207184	1.210083353
3.610925131	-2.539693207	1.204555497
4.077738141	-3.136665313	-0.854169298
3.592880559	-2.543512804	1.201133475
4.065756	-3.147349452	-0.853677919
3.563846724	-2.539408146	1.1940261
4.055302274	-3.159201736	-0.853514123
3.521545048	-2.525591346	1.182443845
4.050249347	-3.175280373	-0.854496886
3.497353086	-2.524525729	1.176915988
4.045909914	-3.191968548	-0.85564344
3.477884107	-2.526737971	1.172967421
4.043051672	-3.209886639	-0.857117524
4.023936285	-3.214886404	-0.85515206
4.038656446	-3.24699642	-0.860393335
4.021006642	-3.25316666	-0.858755458
4.009477176	-3.264242041	-0.858427872
3.99639144	-3.274027026	-0.857772698
3.984044445	-3.284389633	-0.857281317
3.978504903	-3.300376223	-0.858264079
3.970632317	-3.314463026	-0.858755457
3.969509944	-3.334242976	-0.860720923
3.968302818	-3.354047412	-0.862686444
3.961751405	-3.369401719	-0.863505411
3.949147129	-3.379616146	-0.863014031
3.936517209	-3.389784748	-0.86252265
3.923862593	-3.399908007	-0.862031271
3.91490023	-3.413226745	-0.862358856
3.903668691	-3.424570866	-0.862195063
3.87983158	-3.424780087	-0.859246839
3.887745475	-3.45304447	-0.863341617
3.88301803	-3.470214727	-0.864651908
3.873820321	-3.483430549	-0.864979495
3.860920531	-3.493313257	-0.864488115
3.843619614	-3.499165002	-0.863014031
3.836503536	-3.51427238	-0.863832999
3.830056057	-3.530037304	-0.864815701
3.819931517	-3.542441947	-0.864979495
3.828519806	-3.572315751	-0.869401861
3.801719455	-3.569190032	-0.865798462
3.802942643	-3.592352825	-0.868582893
3.791903784	-3.604003342	-0.868582894
3.777977018	-3.612892499	-0.86792772
3.764742434	-3.62241419	-0.867436397
3.73801865	-3.618851484	-0.863832999
3.759404686	-3.661966142	-0.871367325
3.760833939	-3.685911725	-0.874315608
3.750210456	-3.698124992	-0.874479401
3.733945078	-3.70474951	-0.873332847
3.718372577	-3.712005867	-0.872350086
3.701398683	-3.717803371	-0.871039796
3.691362803	-3.73054413	-0.871367325
3.684050637	-3.746071568	-0.872350086
3.67805695	-3.763000229	-0.873660434
3.667182144	-3.774974352	-0.873824227
3.651472221	-3.781949126	-0.872841466
3.641218284	-3.794557539	-0.873169054
3.634325581	-3.810707951	-0.874315608
3.639583413	-3.839738981	-0.878410329
3.629815635	-3.853041355	-0.87890171
3.60246997	-3.84759646	-0.875134517
3.58728866	-3.855019793	-0.874315608
3.578123836	-3.868904097	-0.874970723
3.568240173	-3.882042458	-0.875462105
3.558309526	-3.8951561	-0.875953484
3.489996871	-3.548673278	-0.877357293
3.55164759	-3.911897825	-0.877263833
3.477716486	-3.557955199	-0.877010096
3.415955956	-3.603734619	-0.875274111
3.410961469	-3.620649083	-0.876836468
3.405895453	-3.637566708	-0.878398884
3.396061302	-3.649440648	-0.878746081
3.37816216	-3.652612373	-0.877010096
3.366940161	-3.662959371	-0.877010096
3.353029734	-3.670363168	-0.876315702
3.349697453	-3.689382547	-0.878398884
3.321209129	-3.680631724	-0.873885323
0.735784776	-5.868736059	-0.647344958
0.716811234	-5.863072242	-0.646474611
0.697761747	-5.8563603	-0.645495426
0.678874789	-5.850573862	-0.64462502
0.660699195	-5.850653438	-0.644407462
0.838704306	-5.586574465	-0.671924061
0.642963523	-5.854629214	-0.64462502
0.822427499	-5.595015996	-0.672632701
0.624998763	-5.856574106	-0.64462502
0.807237908	-5.611273322	-0.674286253
0.607130592	-5.85945261	-0.644733857
0.790572466	-5.617656737	-0.67475868
0.589548848	-5.865244078	-0.645169031
0.776718115	-5.644649013	-0.677711434
0.571166217	-5.863067562	-0.644733856
0.754764873	-5.612560169	-0.673577612
0.553455943	-5.867761283	-0.645060251
0.737283542	-5.612880475	-0.673341399
0.534728827	-5.861512034	-0.644189845
0.719302188	-5.609206276	-0.672632701
0.515085238	-5.844310757	-0.642122697
0.701350338	-5.605474817	-0.671924061
0.497405389	-5.848835102	-0.642449092
0.685352265	-5.61745701	-0.673105128
0.479621498	-5.852315142	-0.642666708
0.665887458	-5.60079794	-0.670861071
0.46260245	-5.865650897	-0.643972288
0.648358715	-5.599855385	-0.670506722
0.446482588	-5.891823077	-0.646692227
0.632287348	-5.611685829	-0.671687848
0.805816027	-5.381179671	-0.699830536
0.429341567	-5.906053793	-0.648106585
0.616582111	-5.62741867	-0.673341399
0.789446863	-5.384607983	-0.699958149
0.409701365	-5.885526864	-0.645713042
0.600260653	-5.638170434	-0.67440433
0.771233076	-5.37522316	-0.698427323
0.392038823	-5.892707005	-0.646365831
0.581939193	-5.630108075	-0.673223263
0.755152026	-5.380510572	-0.698810044
0.374147225	-5.896858245	-0.646692226
0.563672891	-5.621986551	-0.672042197
0.73958514	-5.389680348	-0.699702981
0.35623387	-5.900955097	-0.647018563
0.544885724	-5.607875918	-0.670152432
0.723046353	-5.391924021	-0.699702981
0.33761661	-5.893088551	-0.646039437
0.525167489	-5.582828035	-0.666963465
0.318620463	-5.877222079	-0.644189845
0.508217069	-5.586390824	-0.667199678
0.300689438	-5.880157744	-0.644407462
0.491249728	-5.589902081	-0.667435891
0.283077429	-5.889988923	-0.645386647
0.474936791	-5.601277302	-0.668617016
0.265452613	-5.900759919	-0.64647461
0.458801265	-5.61557407	-0.670152431
0.24743134	-5.903532896	-0.646692226
0.442738124	-5.631804381	-0.67192406
0.229318394	-5.904264506	-0.646692227
0.426056189	-5.641057576	-0.672868914
0.211203297	-5.904940297	-0.646692227
0.408747676	-5.642338499	-0.672868915
0.193248617	-5.91052796	-0.64723618
0.391297882	-5.641584726	-0.672632701
0.175703183	-5.930965735	-0.649412108
0.373659537	-5.637804435	-0.672042197
0.157691117	-5.938432558	-0.650173734
0.139424844	-5.936900959	-0.649956118
0.121169459	-5.935313066	-0.649738502
0.102942363	-5.934663085	-0.649629724
0.084706202	-5.93296308	-0.649412108
0.066492592	-5.932200988	-0.649303329
0.048268268	-5.929395144	-0.648976934
0.030092038	-5.932497285	-0.649303328
0.011859371	-5.916656567	-0.647562574
-0.00630436	-5.927599764	-0.648759375
-0.024498164	-5.929540726	-0.648976933
-0.042711093	-5.9324196	-0.649303328
-0.060941921	-5.935243133	-0.649629724
-0.079177211	-5.937016167	-0.64984734
-0.097587009	-5.948672101	-0.651152919
-0.115817465	-5.947350884	-0.651044082
0.292115339	-6.170401919	-0.626488254
0.273095456	-6.169281383	-0.626286434
0.254453709	-6.177048588	-0.626992749
0.235653187	-6.181776882	-0.627396332
0.217000286	-6.191419434	-0.62830441
0.198004259	-6.192055935	-0.628304409
0.17966755	-6.21550716	-0.630625116
0.160443621	-6.210062027	-0.630019712
0.141458594	-6.213508928	-0.630322443
0.122532295	-6.220876357	-0.631028699
0.103578673	-6.229181222	-0.631835925
0.08452128	-6.23344868	-0.632239508
0.065407363	-6.234673892	-0.632340419
0.046316271	-6.239819632	-0.632844913
0.027168226	-6.238937172	-0.632744002
0.008018348	-6.232026987	-0.632037746
-0.011097734	-6.23003249	-0.631835925
-0.030201504	-6.227979317	-0.631634104
-0.049308533	-6.227857308	-0.631634104
-0.068415095	-6.227676622	-0.631634104
-0.087534997	-6.228432419	-0.631735014
-0.748118733	-5.994340782	1.121131105
-0.106762379	-6.235097632	-0.632441329
-0.765757042	-5.98616539	1.120036284
-0.126151991	-6.247671786	-0.633753048
-0.783352256	-5.977938922	1.118941466
-0.145527207	-6.256207102	-0.634661125
-0.80561076	-6.004741811	1.124415677
-0.164877422	-6.261698264	-0.635266529
-0.821622167	-5.984708746	1.121131104
-0.184233456	-6.26613559	-0.635771024
-0.835604224	-5.951002797	1.115291992
-0.203618276	-6.270512807	-0.636275518
-0.222961	-6.272841029	-0.636578248
-0.242281541	-6.27411589	-0.636780011
-0.811861869	-5.408260287	1.442892258
-0.26115616	-6.264396768	-0.635871934
-0.839582267	-5.478381074	1.462280572
-0.545500129	-6.706710543	-0.616045098
-0.280462808	-6.265553797	-0.636073754
-0.853696502	-5.458584119	1.45768863
-0.56381149	-6.678213029	-0.613583485
-0.299588857	-6.262676756	-0.635871934
-0.873181208	-5.473126509	1.462280573
-0.58690195	-6.706213537	-0.616318624
-0.319812801	-6.281600205	-0.637889909
-0.897110491	-5.514322584	1.474015535
-0.963991826	-5.936538973	1.116204302
-0.606395155	-6.692479796	-0.61522458
-0.339512056	-6.288536895	-0.638697134
-0.706802988	-5.545005735	1.41424721
-0.625159342	-6.67174987	-0.613492291
-0.35903016	-6.291439038	-0.639100718
-0.718413709	-5.501475617	1.403700524
-0.646488568	-6.678721292	-0.614312868
-0.377792765	-6.281369751	-0.63819264
-0.728093718	-5.445435127	1.389965229
-0.666381635	-6.670761003	-0.613765817
-0.396308633	-6.268266321	-0.636981832
-0.983412338	-7.039711846	-0.583765141
-0.68633397	-6.663731946	-0.61330996
-0.416393234	-6.279926446	-0.638293551
-0.9935198	-5.556101498	1.725183757
-1.006273507	-7.045541435	-0.584501796
-0.708140631	-6.674468856	-0.614495199
-0.435451207	-6.275641585	-0.637990819
-1.027884131	-7.042420754	-0.584501795
-0.727533273	-6.662365234	-0.613583486
-0.456284633	-6.296106927	-0.640210616
-0.878002895	-5.995186133	1.295095496
-1.049485183	-7.039234231	-0.584501795
-0.753971218	-6.713541207	-0.618506711
-0.477322663	-6.31749492	-0.642531323
-0.894221625	-5.977956668	1.291960171
-1.072726167	-7.046819421	-0.585402182
-0.77171014	-6.686464355	-0.616227429
-0.49607821	-6.308065851	-0.641724155
-1.03680395	-5.413873908	1.684845718
-0.652988135	-5.689374393	1.389990685
-0.911966976	-5.971318644	1.291124157
-1.095870565	-7.053343608	-0.586220674
-0.79022772	-6.667253852	-0.614677529
-0.51575294	-6.31048091	-0.64212774
-0.669302126	-5.677693489	1.38763201
-0.92832458	-5.95593107	1.288406898
-1.118440948	-7.055854694	-0.586711816
-0.809837185	-6.657878558	-0.614039342
-0.535447097	-6.312833949	-0.642531322
-0.681815229	-5.635093919	1.377725362
-0.944289245	-5.938568369	1.285271575
-1.139128402	-7.046486772	-0.586220674
-0.829519775	-6.649433538	-0.613492291
-0.554986341	-6.313143711	-0.642733143
-0.933793447	-5.76686966	1.716730222
-0.665946552	-5.365840705	1.312389013
-0.947320635	-5.842009148	1.26499646
-1.159282738	-7.034108536	-0.58548402
-0.852442172	-6.666613234	-0.615315717
-0.57444238	-6.312402015	-0.642834054
-0.953356735	-5.775337527	1.720113503
-0.966834122	-5.848723728	1.267086677
-1.179206868	-7.020689799	-0.584665529
-0.874313737	-6.67482788	-0.616318624
-0.594458236	-6.317543981	-0.643540311
-0.961998287	-5.718455246	1.704042897
-0.984935679	-5.846694001	1.267295767
-1.200740441	-7.017039028	-0.584665529
-0.894787696	-6.672113858	-0.616318623
-0.614029927	-6.317670542	-0.643742131
-0.968355062	-5.650227484	1.684589132
-0.71594702	-5.364300224	1.313568349
-1.003695445	-5.848464119	1.268340876
-1.226027198	-7.034922656	-0.586466245
-0.915117896	-6.668350758	-0.616227429
-0.634005042	-6.321696645	-0.644347535
-0.980241172	-5.616040553	1.675285088
-1.021970261	-5.847283976	1.268758826
-0.815091842	-5.951208699	1.222964159
-1.249867949	-7.043885571	-0.587530307
-0.935433387	-6.664525631	-0.616136292
-0.653703672	-6.322690984	-0.644650209
-1.212769486	-5.586794435	1.747398887
-0.976315057	-5.493982929	1.639760718
-1.056227201	-5.94366996	1.527318412
-0.827908211	-5.90986299	1.214983931
-1.27040959	-7.034133059	-0.587039224
-0.956158322	-6.663596297	-0.616318624
-0.990433533	-5.475856157	1.635249603
-1.008198761	-5.574074964	1.433133299
-0.839907101	-5.87985992	1.441646572
-0.840617544	-5.869465173	1.207203259
-1.288714598	-5.867559545	1.114926976
-1.293605319	-7.039024647	-0.587775878
-0.977030855	-6.663587221	-0.616592149
-1.016085269	-5.520914505	1.649628624
-1.336251377	-5.987770064	1.618661942
-0.61677597	-5.695862735	1.332163043
-0.860181727	-5.877523963	1.209397784
-1.313363186	-7.02522608	-0.586957387
-0.998354741	-6.666467262	-0.617139141
-1.079628759	-5.766735978	1.724060642
-1.389841699	-6.139245324	1.660754743
-0.880237906	-5.888425119	1.212190858
-1.720931465	-7.541819605	-0.561150024
-1.337702406	-7.03585011	-0.588185124
-1.018501466	-6.661404586	-0.616956811
-1.062682507	-5.5814937	1.669646251
-0.847621454	-5.567334495	1.366875288
-0.903473723	-5.919600851	1.219173543
-1.744511125	-7.538447689	-0.561294743
-1.359660088	-7.033670061	-0.588348857
-1.039394173	-6.661199887	-0.617230336
-1.061932279	-5.485896233	1.642016159
-0.903791995	-5.816296222	1.428673623
-1.442270624	-6.202431755	1.427715341
-0.923289513	-5.927451554	1.221368067
-1.771959683	-7.55150943	-0.562669405
-1.382769956	-7.037289257	-0.589003674
-1.061391095	-6.667814394	-0.618142049
-1.13006549	-5.743375599	1.720113502
-1.364974991	-5.781771799	1.567385141
-1.453903343	-6.166636398	1.420495788
-0.931320546	-5.86071914	1.208200803
-1.798119673	-7.558651178	-0.563609908
-1.405329347	-7.037900514	-0.589412919
-1.082959565	-6.671407619	-0.618780236
-1.147304346	-5.737999811	1.719549641
-0.931664253	-5.789979828	1.660469291
-1.475310589	-6.172586614	1.422902268
-0.944593965	-5.828815802	1.202215661
-1.828782404	-7.584125823	-0.565925131
-1.427905466	-7.038439717	-0.589822165
-1.103422113	-6.668053761	-0.618780236
-1.164711909	-5.733512745	1.719267711
-0.950202157	-5.791841843	1.661831495
-1.491943463	-6.158547727	1.420714538
-0.966624839	-5.851027217	1.207402815
-1.857960952	-7.602701527	-0.567733894
-1.449492308	-7.034025486	-0.589822165
-1.123046256	-6.659727401	-0.61832438
-1.179000513	-5.713938448	1.714474663
-0.921472666	-5.510842534	1.582009075
-0.979853108	-5.820011618	1.201617114
-1.886551298	-7.618264511	-0.569325635
-1.47739407	-7.05978641	-0.592359535
-1.142798305	-6.652324632	-0.617959718
-1.197902432	-5.7168679	1.716448293
-0.942253579	-5.530753609	1.588547465
-1.478589697	-5.936285115	1.614070001
-0.996710099	-5.811183187	1.200420132
-0.790236013	-5.902552756	1.154017589
-1.911856692	-7.620179876	-0.569904397
-1.497182019	-7.046446635	-0.591622881
-1.225418214	-5.760087603	1.730545269
-0.951979133	-5.486124682	1.576560495
-1.503892154	-5.959846558	1.621723236
-1.014702551	-5.809063311	1.200619571
-0.806875233	-5.889401189	1.15192487
-1.274750372	-5.981202292	1.073271987
-1.935471805	-7.615245409	-0.569976757
-1.520684347	-7.050588609	-0.592359536
-1.233565512	-5.712223673	1.717294084
-1.562875742	-6.11445991	1.665091578
-1.03595109	-5.825218151	1.204609742
-0.824394885	-5.883009209	1.151163956
-1.277266579	-5.904099901	1.060134884
-1.966533909	-7.639213885	-0.57221962
-1.541668676	-7.04296934	-0.592114023
-1.245127964	-5.681233475	1.709117873
-1.59447026	-6.159247068	1.678612295
-1.285322278	-5.864631016	1.518979125
-1.355299929	-6.177220293	1.351740292
-0.843692853	-5.88919852	1.152876158
-1.981910092	-7.602261102	-0.569904397
-1.566510557	-7.052800348	-0.59334176
-1.27234074	-5.721404915	1.722368943
-0.830356742	-5.744122277	1.583611357
-1.612133131	-6.149649885	1.677336756
-1.359582384	-6.107169421	1.337317873
-0.863605364	-5.899210575	1.155349276
-2.00776966	-7.605788386	-0.570627937
-1.59493248	-7.078101326	-0.595879189
-1.28862089	-5.711859298	1.720677363
-0.830638301	-5.624158927	1.551233637
-1.633224927	-6.153085982	1.679632728
-0.824469235	-5.539571476	1.302267501
-1.366463904	-6.050506143	1.325821689
-0.882861291	-5.904300659	1.156871221
-2.030836986	-7.598629206	-0.570555577
-1.618638797	-7.081919302	-0.596615843
-1.309776875	-5.723778396	1.725470293
-0.848464568	-5.62539987	1.552286612
-1.656611255	-6.164854221	1.684224668
-0.879801864	-5.789311032	1.361605709
-1.392225853	-6.077741329	1.332719375
-0.911935204	-5.973380799	1.170949242
-1.783094526	-6.643408939	1.276600521
-2.053097866	-7.588511658	-0.570266196
-1.641033405	-7.079832546	-0.596861414
-0.868655197	-5.641840391	1.557551253
-1.370780822	-5.906966818	1.534186059
-1.41020172	-6.070584071	1.332092335
-0.931768399	-5.980255087	1.172851702
-2.078740133	-7.590834718	-0.570917318
-1.663658407	-7.07864552	-0.597188822
-1.135365986	-5.800572091	1.673546072
-0.903328887	-5.749701478	1.588086353
-1.38378962	-5.881028736	1.528544718
-1.427698437	-6.061469789	1.331047228
-2.105481876	-7.596916615	-0.571857879
-1.684674524	-7.070599609	-0.596943251
-1.125374207	-5.657395903	1.633226153
-0.938367093	-5.855496822	1.618094907
-0.967346694	-5.993475787	1.411657997
-0.956977614	-5.903681939	1.158963939
-1.173902344	-5.859122774	0.989891099
-2.129586852	-7.593302431	-0.572074959
-1.707996715	-7.072179547	-0.597516231
-1.133957293	-5.610534045	1.620694279
-0.903275586	-5.527922919	1.528332342
-1.229338942	-6.05903692	1.500614404
-0.959879631	-5.80870124	1.14089074
-1.196791822	-5.879661809	0.993976876
-2.151239116	-7.580975881	-0.571640858
-1.72944884	-7.065937863	-0.597434334
-1.156195952	-5.631534124	1.627777574
-0.928472605	-5.574609834	1.542020545
-1.422169532	-5.804014982	1.511866146
-0.97720085	-5.827006811	1.37383563
-0.977043835	-5.801856676	1.140129826
-1.756011523	-6.16328875	1.189377109
-1.235797486	-5.977405481	1.011136935
-2.175037533	-7.576257668	-0.571785519
-1.753038008	-7.068337359	-0.598089151
-1.199392114	-5.752293681	1.663738487
-0.946377937	-5.576490658	1.543336734
-1.000981143	-5.834632924	1.147168777
-1.789616658	-6.208888881	1.199230829
-1.259197741	-5.997723608	1.015222713
-2.19604565	-7.561886764	-0.571206757
-1.784673071	-7.102556609	-0.601445071
-1.224009308	-5.781532828	1.673273562
-1.008837673	-5.835935938	1.615989076
-1.307271514	-6.152027387	1.526560305
-1.010935318	-5.786081192	1.138227363
-1.807280796	-6.198649853	1.198318403
-1.275124576	-5.982253607	1.013261483
-2.218391686	-7.552243145	-0.570989678
-1.81161771	-7.117330851	-0.60316395
-1.250434472	-5.818200044	1.684988138
-1.030917142	-5.795518039	1.140700598
-1.824899066	-6.18836066	1.197405976
-2.240415062	-7.541577108	-0.570700297
-1.837674584	-7.128145848	-0.604555421
-1.264382408	-5.796475108	1.679811951
-1.245034818	-5.68727543	1.413106082
-2.261819907	-7.528936885	-0.570266196
-2.286647175	-7.527688219	-0.570700297
-2.312366304	-7.529218477	-0.571351419
-1.686724193	-6.295599695	1.648973997
-2.338412003	-7.531614109	-0.572074959
-2.360611708	-7.521549425	-0.571857879
-2.377041632	-7.493356735	-0.570266196
-2.41189506	-7.523069632	-0.573087821
-1.242303585	-6.131515939	1.45468945
-1.532585596	-6.178928718	1.545194147
-2.165474713	-6.590908081	1.287549058
-1.589192515	-6.324052285	1.582697747
-1.208910423	-5.696780023	1.354131765
-2.185685204	-6.584233586	1.287549059
-2.700504621	-8.094911211	-0.306943199
-1.585572852	-6.22873872	1.560054061
-1.296326362	-6.01773556	1.431361862
-2.206187718	-6.578429206	1.287731568
-2.725007642	-8.08564084	-0.306907257
-1.610497715	-6.246429262	1.565714953
-1.82979029	-6.140441338	1.369507124
-2.226990607	-6.573492553	1.28809647
-1.572787353	-6.04221132	1.767807243
-1.572697018	-6.023317892	1.510992762
-1.660935006	-6.351738216	1.336681835
-2.247147345	-6.566628889	1.288096468
-1.279856015	-5.71632932	1.598352419
-1.67991238	-6.344718053	1.33628284
-1.300592471	-5.726487771	1.602300988
-1.69099726	-6.308300309	1.32969915
-1.830589229	-5.883255411	1.81061612
-1.714192136	-6.317268309	1.332691779
-1.730450944	-6.300640548	1.330297699
-2.35286352	-6.533105013	2.122426184
-1.752134617	-6.303799049	1.332093231
-2.311784062	-6.357788709	2.067765148
-1.633659357	-5.833418181	1.715228078
-2.437066156	-6.638843076	2.161595018
-1.651810732	-5.829304407	1.715500472
-1.798827109	-6.321203652	1.338078371
-2.650294011	-8.098637192	-0.385905233
-2.353742	-6.351554591	2.070395858
-1.670482469	-5.826983895	1.71631777
-2.676696084	-8.09521029	-0.386131432
-2.364170696	-6.320119596	2.062503726
-2.136593247	-6.445987789	1.995568499
-1.731230218	-5.969687556	1.759906766
-1.777851963	-6.104949541	1.294586409
-2.513213981	-6.731442041	1.33353297
-2.702152085	-8.088855038	-0.386221912
