x	y	z
5.99908481	-2.386889957	-0.767946965
5.636704375	-2.008072168	-0.769609514
5.335951689	-1.684713495	-0.774959331
4.878600438	-2.153795038	-0.782640946
4.648635122	-1.8526808	-0.782298057
4.491332205	-1.6026846	-0.791765022
4.302908402	-1.359047601	-0.795419682
3.928336936	-1.737552714	-0.792781319
3.820763733	-1.525521257	-0.79939329
3.707736142	-1.325839369	-0.804490056
3.594178928	-1.134992688	-0.809132129
3.304333461	-1.466101359	-0.807182361
3.214430943	-1.286227713	-0.806893559
3.169974027	-1.133916947	-0.819586541
3.07541048	-0.972235357	-0.819873698
2.849105451	-1.26822979	-0.821472283
2.800362193	-1.12309389	-0.825236907
2.733252099	-0.978506384	-0.824731717
2.66940062	-0.843370258	-0.826793517
11.67636452	-4.66694779	-0.112808715
8.925141745	-3.960332574	-0.708310792
8.185434993	-3.280436138	-0.724222413
6.28308465	-2.793099091	-0.752552163
5.996341399	-2.407133174	-0.768537527
5.610918266	-2.018305715	-0.766930584
5.336420048	-1.702882816	-0.775782471
4.876488996	-2.170764033	-0.783366931
4.630095871	-1.86177362	-0.78013572
4.478969414	-1.613781222	-0.790454674
4.291213324	-1.369846474	-0.794030895
3.931070756	-1.753201384	-0.794414785
3.800586436	-1.531000452	-0.796150679
3.697200304	-1.334879311	-0.803088869
3.556216742	-1.135014804	-0.80136612
3.31674664	-1.483804474	-0.811322915
3.242077732	-1.308843693	-0.814837666
3.175618674	-1.14693749	-0.82195189
3.083491587	-0.985205609	-0.822829969
2.843436729	-1.276172814	-0.820962842
2.82551623	-1.143257316	-0.833679249
2.741093087	-0.99081126	-0.828010928
2.676850338	-0.854764872	-0.829909231
8.899293242	-3.981586045	-0.70722557
8.176256442	-3.305906978	-0.724304251
7.594721735	-2.75569459	-0.739673477
6.269950197	-2.810329336	-0.752008151
5.987087127	-2.424772899	-0.768301313
5.59071581	-2.030431815	-0.765017095
5.322685715	-1.71651045	-0.774547761
4.87793031	-2.189360808	-0.784673763
4.63168664	-1.87894101	-0.781371325
4.437841778	-1.61436251	-0.784066843
4.280429852	-1.38088872	-0.792815735
3.933745761	-1.768883166	-0.796048252
3.785868066	-1.538587901	-0.794052536
3.699531071	-1.348564714	-0.804490055
3.571328323	-1.151922506	-0.805563957
3.289047863	-1.48353974	-0.8056569
3.243458745	-1.320988245	-0.816199513
3.122792214	-1.138700506	-0.809179093
3.073998495	-0.992576417	-0.821105487
2.811315522	-1.272133118	-0.812811844
2.804134608	-1.144629818	-0.828402805
2.731714857	-0.9969077	-0.826098035
2.684255094	-0.866213179	-0.833024888
12.83298266	-5.780769716	-0.506263962
8.892491851	-4.011330659	-0.707659671
8.178994403	-3.336245657	-0.72545015
7.589972053	-2.780352106	-0.740038197
6.262204804	-2.829961276	-0.75211693
5.982377933	-2.44425637	-0.768655605
5.583528986	-2.047232834	-0.764889541
5.30891838	-1.730069967	-0.77331311
4.860373328	-2.19942109	-0.782931339
4.632301186	-1.89576143	-0.782452493
4.431942272	-1.627629932	-0.783903051
4.277109252	-1.394319627	-0.792989303
3.925613567	-1.779725259	-0.795503764
3.778405103	-1.549078382	-0.793480331
3.685262053	-1.356186296	-0.802288199
3.563129365	-1.161358828	-0.804514497
3.288034629	-1.49523953	-0.806528617
3.237589052	-1.330192544	-0.815745563
3.122931256	-1.149618417	-0.810125256
3.087523634	-1.007413966	-0.825539895
2.824995289	-1.288779422	-0.817906196
2.772068563	-1.141474788	-0.819960465
2.716909351	-1.000960758	-0.822545538
2.659701844	-0.867308397	-0.826227035
12.68961941	-5.76308632	-0.501303425
8.900117025	-4.047677654	-0.709251354
8.15950447	-3.357530214	-0.724631659
7.556187647	-2.794298911	-0.737576584
6.267062068	-2.8553423	-0.753748905
5.9785231	-2.464112063	-0.769128031
5.583733022	-2.066763273	-0.765782537
5.312053391	-1.749137625	-0.774547761
4.834699462	-2.205698014	-0.779882084
4.627376177	-1.910341237	-0.782606928
4.426928129	-1.64121934	-0.783903052
4.278423876	-1.409283646	-0.794030895
3.917451645	-1.790534184	-0.794959275
3.788148898	-1.566665562	-0.796532207
3.678328802	-1.366462553	-0.801687683
3.56976493	-1.175649069	-0.806823342
3.276334344	-1.50206614	-0.80478524
3.239790625	-1.342729262	-0.817334384
3.117567929	-1.158517043	-0.809652174
3.069691117	-1.012026283	-0.821598179
2.819270934	-1.296632221	-0.817396755
2.777461245	-1.153674074	-0.822598685
2.699400021	-1.003926386	-0.81817318
2.681622191	-0.883567519	-0.833874669
12.54466958	-5.743745552	-0.496271004
8.889470126	-4.075795027	-0.709396074
8.145483256	-3.381019242	-0.724304251
7.555043107	-2.820253921	-0.738305908
6.266402648	-2.878290131	-0.75472809
5.937009441	-2.468337568	-0.764757997
5.585727941	-2.0870085	-0.766930584
5.315121066	-1.76824065	-0.77578247
4.830606607	-2.221760459	-0.780317734
4.623317915	-1.925288508	-0.782915859
4.417252304	-1.653064482	-0.783084083
4.261932339	-1.418360347	-0.791774142
3.933375075	-1.812421214	-0.799315182
3.788760398	-1.580547765	-0.797676618
3.676871179	-1.378773116	-0.802288198
3.575418331	-1.189682248	-0.808922259
3.274368511	-1.513339116	-0.805438985
3.238351622	-1.353789388	-0.818015308
3.086707259	-1.157838872	-0.802556183
3.077606007	-1.025114571	-0.824554451
2.831948488	-1.313003812	-0.822236472
2.818390995	-1.180826545	-0.835789847
2.707114264	-1.016260194	-0.82145245
2.679808778	-0.892093362	-0.83415791
12.50702751	-5.772991258	-0.49548017
8.888693128	-4.108488238	-0.710336634
8.127717307	-3.402914029	-0.723649434
7.546354892	-2.843419206	-0.738305907
6.287310421	-2.911285502	-0.758318435
5.9349029	-2.4888445	-0.765466637
5.595075093	-2.1100852	-0.769099238
5.31248805	-1.785485643	-0.77619404
4.826460664	-2.237818715	-0.780753326
4.62012211	-1.940611463	-0.783379167
4.422311572	-1.670443098	-0.784885755
4.279964177	-1.438961331	-0.795940448
3.935822918	-1.828208645	-0.800948705
3.792036789	-1.59559053	-0.799393291
3.65887909	-1.384844872	-0.799285615
3.521706338	-1.183823168	-0.797588079
3.292711469	-1.534093983	-0.811104944
3.224311797	-1.35955584	-0.815518589
3.155834666	-1.194825952	-0.82147881
3.063423653	-1.030842477	-0.821598179
2.808633706	-1.31267821	-0.816632623
2.765887667	-1.168817146	-0.821279574
2.664404252	-1.009563785	-0.809428522
2.651606812	-0.891750878	-0.826227036
12.46932377	-5.802059697	-0.494689336
8.894127738	-4.144164176	-0.711783656
8.112648693	-3.425894882	-0.723240189
7.525495769	-2.861955856	-0.737120728
6.277448209	-2.930140384	-0.758209597
5.926325063	-2.506654033	-0.76534856
5.600625547	-2.131827491	-0.770757618
5.308861199	-1.802412556	-0.776468401
4.832120716	-2.2584807	-0.782786142
4.60232016	-1.949766358	-0.781371324
4.418087648	-1.684354164	-0.785049548
4.267136908	-1.449234944	-0.794378091
3.908821601	-1.830266736	-0.796592741
3.794352678	-1.610284785	-0.800919228
3.659189543	-1.39781171	-0.800286496
3.57545782	-1.2141132	-0.810601382
3.282689111	-1.541699335	-0.809797455
3.20847461	-1.364486574	-0.81256792
3.14035504	-1.199993695	-0.818403866
3.07401095	-1.04491487	-0.825293548
2.812466498	-1.324997957	-0.818925079
2.70461179	-1.152715106	-0.804131139
2.692741146	-1.029759207	-0.818992982
2.654306847	-0.901732647	-0.827926484
8.866927933	-4.164647253	-0.710626016
8.104850284	-3.451939716	-0.7234857
7.515750174	-2.884673434	-0.737029533
7.083449357	-2.426678818	-0.759373533
6.277423944	-2.953617839	-0.759297562
5.911299774	-2.521707033	-0.764403648
5.601465682	-2.151845319	-0.771778168
5.300495435	-1.817727491	-0.77605683
4.843070155	-2.281728458	-0.7856902
4.610853305	-1.97008801	-0.783842533
4.411978657	-1.697546422	-0.784885755
4.258944384	-1.461041316	-0.793683697
3.905855569	-1.843509387	-0.797137227
3.801126362	-1.626939503	-0.803398841
3.648484683	-1.406564392	-0.798885252
3.558768412	-1.220635958	-0.807662874
3.276179431	-1.550928065	-0.809361567
3.207853607	-1.3758592	-0.813475819
3.096770719	-1.19423998	-0.807996419
3.055207538	-1.048990458	-0.821105486
2.81013526	-1.33444987	-0.819434519
2.717013753	-1.167863715	-0.808879903
2.680595118	-1.034552084	-0.816260288
2.682370179	-0.920455275	-0.837556808
30.81110975	-10.61298856	1.47296088
12.22117349	-5.778080325	-0.486242046
11.24449106	-4.823678748	-0.55411103
8.866729829	-4.197805738	-0.711638937
8.091475125	-3.475608791	-0.723240189
7.509650835	-2.908796995	-0.737303059
7.064688951	-2.444495189	-0.758162725
6.274620035	-2.975844672	-0.760059189
5.919954552	-2.54689457	-0.766529627
5.596687123	-2.169737429	-0.772033277
5.293021726	-1.833332201	-0.77578247
4.877159381	-2.31609975	-0.792369497
4.610231504	-1.98657048	-0.784769265
4.4104281	-1.712502518	-0.785540928
4.254441986	-1.474100676	-0.793683697
3.914389718	-1.862243176	-0.800041224
3.76186913	-1.623810435	-0.796150679
3.641412942	-1.416685383	-0.798284735
3.550387526	-1.229948072	-0.806613415
3.255550893	-1.553406684	-0.805438985
3.180376969	-1.37564177	-0.807574483
3.092186761	-1.203382787	-0.807759907
3.042818164	-1.055183408	-0.818641909
2.813878252	-1.346822285	-0.821727031
2.730233074	-1.183482788	-0.813892534
2.669341329	-1.039629285	-0.81380088
2.67590892	-0.927424071	-0.836423841
30.48402778	-10.60505539	1.458872964
12.13392353	-5.782443242	-0.483474185
11.18012923	-4.836734815	-0.551668015
8.869111734	-4.232290906	-0.712868879
8.080773457	-3.500416626	-0.723240188
7.499763858	-2.931460034	-0.737211864
7.049642527	-2.463532241	-0.757355558
6.256491848	-2.990793662	-0.758971166
5.905736263	-2.562278173	-0.765702851
5.592775328	-2.187981717	-0.772415998
5.284567529	-1.848581174	-0.775370901
4.872708076	-2.332333233	-0.792805089
4.609551859	-2.003067803	-0.785695997
4.404234923	-1.7256655	-0.785377134
4.246181517	-1.485845135	-0.792989304
3.905111437	-1.872542908	-0.799315184
3.765870406	-1.639261996	-0.798058088
3.643433392	-1.430356687	-0.799685979
3.536445879	-1.237283072	-0.804304629
3.267481085	-1.571424115	-0.80957954
3.166321939	-1.381109493	-0.805077762
3.121038233	-1.225649488	-0.816275086
3.032248979	-1.061950917	-0.816671081
2.804507074	-1.352927853	-0.820198708
2.725705526	-1.19146705	-0.813628723
2.70195043	-1.061887786	-0.824731717
2.65494713	-0.929292464	-0.830758956
30.26096249	-10.63163997	1.449751903
12.07739079	-5.801037018	-0.481928518
11.13044382	-4.855832497	-0.549948897
8.874062201	-4.268127085	-0.714315901
8.088262509	-3.533170799	-0.724877171
7.491661086	-2.954820481	-0.737303059
7.026102099	-2.479520146	-0.755640256
6.236540546	-3.004796503	-0.757665645
5.891479205	-2.577598438	-0.764876133
5.575888189	-2.201123643	-0.771012727
5.283540917	-1.86643497	-0.77605683
4.861074001	-2.345121933	-0.792079103
4.612434509	-2.021165716	-0.787240476
4.405341989	-1.741708371	-0.78652369
4.247173958	-1.500833973	-0.794030893
3.872785534	-1.871677498	-0.793870296
3.808462908	-1.671719077	-0.808167333
3.634473569	-1.43972373	-0.798685099
3.517883076	-1.242915504	-0.800946382
3.264400971	-1.582292562	-0.810015368
3.155829662	-1.388072301	-0.803488942
3.082034908	-1.221259587	-0.807050314
3.027149215	-1.070602388	-0.816178387
2.789037421	-1.356028753	-0.816887313
2.766168814	-1.219276237	-0.826819884
2.706727574	-1.073363698	-0.827191124
2.660221485	-0.9403099	-0.833308128
29.92127942	-10.61553855	1.435031702
11.84088557	-4.698129229	-0.232588617
12.03165206	-5.824563334	-0.480814179
11.09171934	-4.879498834	-0.5487726
8.860925598	-4.295332166	-0.7143159
8.081945553	-3.559977469	-0.725286476
7.480710042	-2.977054203	-0.737120728
7.03345632	-2.506407585	-0.757254647
6.227292642	-3.023915699	-0.757665645
5.89262861	-2.599669134	-0.766057199
5.56910892	-2.218220011	-0.771012727
5.279656028	-1.883301467	-0.776331191
4.856525558	-2.361322525	-0.792514694
4.596271176	-2.030914295	-0.785541505
4.404559214	-1.757043174	-0.787342657
4.239767266	-1.512864149	-0.793510129
3.885591131	-1.892593307	-0.797681717
3.77010332	-1.668695021	-0.801109963
3.631858875	-1.451594559	-0.799085461
3.506686322	-1.251073968	-0.799267202
3.280577497	-1.60258141	-0.815245498
3.155117385	-1.39932719	-0.80439684
3.105339264	-1.241530417	-0.814146305
3.024763228	-1.080210491	-0.816424735
2.795284637	-1.369685041	-0.81994396
2.750075213	-1.222272446	-0.823126365
2.672163336	-1.069155873	-0.817626665
2.635646631	-0.940729608	-0.826510278
27.24152631	-12.06243439	0.821776987
11.24627977	-4.502190463	-0.221179155
11.95444811	-5.83252725	-0.478441765
10.95250653	-4.858415056	-0.542619851
8.859355473	-4.32818885	-0.715256461
8.091934856	-3.594060524	-0.727169029
7.478010541	-3.002588157	-0.737758915
7.024797766	-2.527637347	-0.757153737
6.212628655	-3.040384767	-0.757012855
5.899141808	-2.62419277	-0.767946965
5.562277541	-2.23529521	-0.771012727
5.270125276	-1.898147714	-0.77578247
4.851923532	-2.377517059	-0.792950342
4.591823582	-2.045810171	-0.785850434
4.423856871	-1.780492708	-0.791765022
4.244371029	-1.529202536	-0.795246113
3.868290479	-1.898871895	-0.795322266
3.764966243	-1.680253687	-0.801109964
3.630114499	-1.463829372	-0.799685979
3.504671415	-1.262489213	-0.799686998
3.256381936	-1.603154957	-0.810451198
3.160589035	-1.413373686	-0.806893559
3.108724305	-1.253959337	-0.816038573
3.024170009	-1.090471486	-0.817163773
2.792803384	-1.379110713	-0.8204534
2.742791471	-1.229125984	-0.822071066
2.655490577	-1.0719478	-0.813527594
2.628236807	-0.947185453	-0.825094013
11.23797707	-4.538918721	-0.221288679
11.92035532	-5.861238019	-0.477794727
11.05062736	-4.942569809	-0.548229721
8.853193712	-4.358872743	-0.715835282
8.048124861	-3.604204782	-0.724222413
7.475224132	-3.028133599	-0.738397102
7.00391872	-2.544421316	-0.755741166
6.203271695	-3.059430566	-0.757012855
5.901029538	-2.646749064	-0.769246167
5.557231791	-2.253094999	-0.771267894
5.272655527	-1.917353924	-0.777017122
4.849929628	-2.395019935	-0.793821526
4.58913059	-2.061507467	-0.786468237
4.429341845	-1.798510159	-0.793730486
4.235957492	-1.540870295	-0.794551719
3.849225105	-1.904190031	-0.792599823
3.754422383	-1.689379618	-0.799965495
3.644664694	-1.482712763	-0.803889539
3.515483058	-1.278582342	-0.8030453
3.252322536	-1.613571628	-0.810669113
3.166004005	-1.427466876	-0.809390278
3.067964319	-1.248475547	-0.80634072
3.044488578	-1.108364606	-0.823569065
2.783364633	-1.385087548	-0.818925077
2.753950886	-1.244286583	-0.826556018
2.634330856	-0.958523557	-0.827926484
11.13325922	-4.536401898	-0.219499675
11.9085855	-5.900887577	-0.478046348
8.843352988	-4.387786754	-0.716124663
8.031579791	-3.626418363	-0.723731272
7.465898726	-3.051052916	-0.738397102
6.973662085	-2.557675261	-0.753319549
6.20097795	-3.081986987	-0.757883203
5.88021442	-2.659112351	-0.767592615
5.558555495	-2.27351292	-0.772415999
5.2630287	-1.932155704	-0.7764684
4.858502737	-2.417822517	-0.796435188
4.591784216	-2.079653176	-0.788012771
4.426542109	-1.813212451	-0.794221868
4.228436947	-1.552840251	-0.794030895
3.850405814	-1.919500307	-0.794051793
3.746540061	-1.699673415	-0.799393291
3.64734984	-1.496863353	-0.805490936
3.539996007	-1.299808735	-0.809551923
3.243865071	-1.621796295	-0.809797454
3.176681885	-1.444024574	-0.813248844
3.059625287	-1.256037106	-0.805158044
3.021060768	-1.110344231	-0.818149215
2.79466165	-1.401422734	-0.823510044
2.715008833	-1.236735749	-0.816003134
2.648482101	-0.972884082	-0.833308127
27.31413524	-12.39651083	0.82737422
11.0120174	-4.526443134	-0.217382086
11.89489624	-5.939627003	-0.478226086
8.827173498	-4.413559036	-0.715907583
8.044906992	-3.662190669	-0.725941292
7.450979412	-3.071666304	-0.737850052
6.948988623	-2.572840141	-0.751503336
6.198603925	-3.104558097	-0.758753609
5.868414711	-2.675492375	-0.767120189
5.56897426	-2.297743201	-0.774839761
5.237571237	-1.941064738	-0.773587471
4.849293451	-2.431829749	-0.796144794
4.589876256	-2.095782682	-0.78878501
4.409105718	-1.821886849	-0.792092551
4.234733588	-1.569913555	-0.796114075
3.84801387	-1.933069915	-0.794777779
3.732380726	-1.707076716	-0.797485882
3.638214042	-1.506172423	-0.804490055
3.530491018	-1.308624251	-0.808292538
3.240617567	-1.632618914	-0.810233285
3.162497777	-1.449300629	-0.810752124
3.047678339	-1.262072242	-0.803029265
3.027635408	-1.123316018	-0.820859142
2.792075342	-1.410862276	-0.824019487
2.725226828	-1.251500033	-0.820224276
2.640089756	-0.979004255	-0.831608681
10.99900176	-4.560589006	-0.21740034
11.85608465	-5.965760908	-0.47739931
8.800231143	-4.433887902	-0.714822361
8.058996504	-3.698494284	-0.728233091
7.441520233	-3.094511107	-0.737850051
6.925219609	-2.588226044	-0.749788034
6.193486958	-3.125799934	-0.759297561
5.859276551	-2.693069126	-0.767002053
5.573802923	-2.319771989	-0.776498083
5.228808201	-1.956083019	-0.773175959
4.844458966	-2.448034394	-0.796580385
4.586117056	-2.111093793	-0.789248376
4.393479257	-1.831230427	-0.790290881
4.235431556	-1.584969133	-0.797155667
3.849084054	-1.948419458	-0.796229747
3.728908811	-1.719341592	-0.797867352
3.631767928	-1.516572077	-0.80408975
3.526459508	-1.319449515	-0.808292538
3.237333864	-1.643436785	-0.810669113
3.169530115	-1.464306054	-0.813702794
3.063516055	-1.279655344	-0.808232988
3.011468105	-1.127840516	-0.817410119
2.808415448	-1.429952178	-0.830132777
2.700366585	-1.250129543	-0.813892533
2.646953893	-0.990797591	-0.834724394
11.08273386	-4.635205539	-0.21933539
11.8216822	-5.993971606	-0.476752301
8.811487567	-4.473507843	-0.716848144
8.051230034	-3.724875501	-0.7285605
7.434746468	-3.118482501	-0.738123577
6.923762168	-2.611918225	-0.750494348
6.183867994	-3.144786726	-0.759297561
5.855491686	-2.713119817	-0.767592615
5.575804762	-2.340700528	-0.7777738
5.244096233	-1.980163604	-0.776331192
4.830754171	-2.459742859	-0.795563949
4.584100051	-2.127233283	-0.790020615
4.379656047	-1.841259879	-0.78881674
4.238840692	-1.60108771	-0.798718025
3.856228708	-1.96692141	-0.798952191
3.748541391	-1.742359013	-0.803208106
3.600009954	-1.516297783	-0.798084582
3.522394958	-1.330262275	-0.808292538
3.227063341	-1.650694379	-0.809361567
3.165905443	-1.474434359	-0.813929767
3.064948118	-1.291311531	-0.809652175
3.007993819	-1.137074262	-0.817410119
2.804015302	-1.438561471	-0.830132777
2.701762947	-1.260855793	-0.815475511
2.63582728	-0.995862991	-0.832175163
11.11083754	-4.687061275	-0.220175115
11.77831933	-6.017481324	-0.475745787
8.831463735	-4.517780925	-0.719597468
8.056022826	-3.757141477	-0.730033867
7.427895797	-3.142441329	-0.738397103
6.932452658	-2.639520015	-0.752310561
6.168882998	-3.161023762	-0.75864483
5.855237642	-2.734853615	-0.768655604
5.588690744	-2.36630357	-0.780580226
5.267615783	-2.007531045	-0.780721133
4.7897331	-2.45738931	-0.790046285
4.586501257	-2.145473347	-0.791565149
4.364904291	-1.850836752	-0.787178863
4.222865792	-1.609874928	-0.796634842
3.864170444	-1.985935157	-0.801856188
3.739622695	-1.752185199	-0.802445109
3.585421537	-1.523121391	-0.795882668
3.521037989	-1.342107276	-0.808922259
3.221116336	-1.660139972	-0.809143652
3.157840753	-1.482484835	-0.81302187
3.069020024	-1.304128513	-0.811780955
3.012640872	-1.149406622	-0.819627352
2.788421193	-1.441384722	-0.82682144
2.736286178	-1.287204764	-0.827083697
18.53576712	-9.531829331	0.014187379
18.33493653	-8.598872357	-0.181678105
11.25188903	-4.787279339	-0.223260236
11.71004489	-6.027974508	-0.473732819
8.829972995	-4.551251423	-0.720610389
8.041751989	-3.780567249	-0.729788295
7.421883746	-3.166778121	-0.738761764
6.930822845	-2.663274226	-0.753016876
6.158272804	-3.179478728	-0.758535993
5.853108513	-2.755765227	-0.76948238
5.598735589	-2.390839046	-0.78300399
5.261431596	-2.023682573	-0.780721132
4.770745531	-2.466166018	-0.788158665
4.584365665	-2.161641195	-0.792337387
4.356484307	-1.863055727	-0.786687482
4.215149579	-1.621762084	-0.796114076
3.857186028	-1.997328726	-0.801674691
3.728903762	-1.761134595	-0.801300699
3.560919041	-1.525625633	-0.791478898
3.522379064	-1.355009674	-0.810181587
3.20128339	-1.662368309	-0.805438985
3.150636805	-1.490916177	-0.812340947
3.068576829	-1.315068962	-0.812727118
3.006387039	-1.157599093	-0.818888313
2.763401939	-1.439212304	-0.820708149
18.49311817	-9.581750565	0.014177169
18.26055523	-8.632431628	-0.181202639
11.23898636	-4.822566079	-0.223296744
11.67020455	-6.052829238	-0.472870131
8.814198418	-4.577400733	-0.720465669
8.01930753	-3.800099767	-0.72880607
7.421280325	-3.193469604	-0.739673476
6.92725743	-2.686323701	-0.75352137
6.146725442	-3.197439618	-0.758318435
5.862568749	-2.782224244	-0.771844572
5.596839813	-2.410358266	-0.783769432
5.230266256	-2.030137181	-0.777017122
4.771932276	-2.485361305	-0.789610636
4.587528044	-2.180360951	-0.794036358
4.352559792	-1.877193807	-0.78701507
4.212908278	-1.63575569	-0.796634842
3.851912067	-2.009607944	-0.801856187
3.715506022	-1.768768984	-0.799584025
3.546328164	-1.532268531	-0.789277041
3.513648239	-1.364040539	-0.809132129
3.205680714	-1.677158607	-0.807836163
3.146926935	-1.500994501	-0.812567921
3.051149477	-1.318694916	-0.809179092
3.022695556	-1.174539749	-0.824308105
2.767536291	-1.452176637	-0.823255352
18.43260816	-9.622245374	0.014153345
18.30349431	-8.721534446	-0.181893397
11.02685384	-4.771652673	-0.219371898
11.6312085	-6.077959279	-0.472043356
12.02870103	-5.738322159	-0.603559401
8.803648368	-4.606270567	-0.720755109
7.995920202	-3.819100504	-0.727742008
7.414188916	-3.217411969	-0.739947002
6.919909621	-2.707926007	-0.75362228
6.133364958	-3.214436518	-0.757883202
5.858484261	-2.802339546	-0.772435134
5.58577956	-2.425937455	-0.783259156
5.21478969	-2.042561329	-0.77564526
4.76603732	-2.500909197	-0.789901089
4.561214562	-2.185034402	-0.790638417
4.340447831	-1.887784176	-0.785868516
4.202368445	-1.646517441	-0.795593252
3.85617417	-2.026906284	-0.804034141
3.71094723	-1.780584287	-0.799774761
3.536221301	-1.540793102	-0.788076007
3.49397076	-1.368751157	-0.805563957
3.174619024	-1.673333107	-0.801298488
3.110708501	-1.495451279	-0.80439684
3.032838374	-1.321838258	-0.805394557
3.028100798	-1.187345653	-0.826771683
18.19552525	-8.738686005	-0.181086022
10.94434984	-4.775868393	-0.218021018
11.60366353	-6.108959358	-0.471683909
11.94981903	-5.745762475	-0.600483027
8.811533131	-4.64488523	-0.722563872
7.980573622	-3.841884591	-0.7274146
7.407932309	-3.241740175	-0.740311723
6.914345539	-2.730239549	-0.753924953
6.124353521	-3.233702617	-0.75799204
5.850753711	-2.820731206	-0.772553212
5.571042268	-2.439879746	-0.782238605
5.212183781	-2.060006852	-0.77619404
4.761840666	-2.517368971	-0.790481876
4.556268934	-2.19987677	-0.790947347
4.349993664	-1.907827436	-0.788652946
4.128609404	-1.632246468	-0.782573512
3.856021039	-2.04194887	-0.805304615
3.713420416	-1.795807304	-0.801491433
3.550314714	-1.559911283	-0.792279626
3.492482805	-1.380542357	-0.806193621
3.159988694	-1.678029805	-0.798901367
3.105229422	-1.504563053	-0.804169865
3.063459414	-1.346383192	-0.81461933
2.986593213	-1.181654469	-0.816424733
2.762841506	-1.471403362	-0.824528927
18.22893396	-8.823657773	-0.181687075
11.36941037	-4.520796659	-0.341333759
11.56897582	-6.13610106	-0.471036871
11.87280177	-5.753643996	-0.597497073
8.808692217	-4.677978289	-0.723504433
7.974129902	-3.86896083	-0.727905683
7.397040702	-3.264050016	-0.740220528
6.903164189	-2.750334886	-0.753622281
6.155652274	-3.27441799	-0.763105523
5.802773648	-2.819572673	-0.767356402
5.545384782	-2.448946461	-0.779687288
5.225160783	-2.083693016	-0.779074911
4.750601886	-2.530106012	-0.789901088
4.560158928	-2.219032727	-0.792800753
4.333293745	-1.916376147	-0.786687482
4.163829933	-1.660960243	-0.790211785
3.827179513	-2.041734746	-0.800585714
3.698187024	-1.802460614	-0.799393291
3.558948895	-1.576749185	-0.795282209
3.466435205	-1.382557594	-0.801156253
3.162570781	-1.691860008	-0.800862659
3.112850773	-1.52006552	-0.807347508
3.054872821	-1.353807126	-0.813436712
2.964951935	-1.183625132	-0.811497578
2.766835473	-1.484444473	-0.827076131
18.16223483	-8.860251211	-0.181292359
11.34528233	-4.551561765	-0.341027004
11.56948757	-6.181926851	-0.471827676
11.80213345	-5.764175922	-0.594827858
8.795178068	-4.705451531	-0.723576734
7.982814635	-3.90347657	-0.729788295
7.392450832	-3.289157548	-0.740767579
6.890078227	-2.769645153	-0.753117728
6.107901252	-3.273098196	-0.758427214
5.794987925	-2.8377989	-0.767474538
5.541469964	-2.467561695	-0.780197564
5.235284736	-2.10636904	-0.781544213
4.738458343	-2.542329691	-0.789175045
4.567522977	-2.239973152	-0.795271963
4.337304616	-1.934080813	-0.788489152
4.164196382	-1.67593293	-0.791253377
3.851215204	-2.069760293	-0.80693808
3.681185573	-1.808171823	-0.796913677
3.569302383	-1.594453827	-0.798685099
3.45038554	-1.388440966	-0.798427669
3.172829969	-1.709888818	-0.80478524
3.11428926	-1.532618636	-0.808936328
3.055140439	-1.365154797	-0.814619329
2.952316523	-1.189094976	-0.809034055
2.771626245	-1.497983693	-0.829878086
18.16457918	-8.93048994	-0.181588385
11.27474313	-4.563469913	-0.339325917
11.4827098	-6.180919794	-0.469059845
11.67952833	-5.748741821	-0.589534667
8.784213375	-4.734305412	-0.723866174
7.974377406	-3.929711229	-0.730115703
7.388685266	-3.31467502	-0.741405766
6.875094804	-2.788153424	-0.752411472
6.115325814	-3.30126573	-0.760603142
5.790706782	-2.857761435	-0.768065042
5.528444546	-2.48211365	-0.779432122
5.233387012	-2.124283418	-0.782230144
4.729765952	-2.556384836	-0.789029849
4.565943293	-2.256601911	-0.796198694
4.325052321	-1.944546821	-0.787342656
4.162684909	-1.690182649	-0.791947771
3.826686732	-2.071734019	-0.803126661
3.689696869	-1.826424701	-0.799965495
3.572433767	-1.609017984	-0.800486648
3.450639264	-1.400858955	-0.799477129
3.185581366	-1.729393377	-0.809361567
3.113062745	-1.543896821	-0.809844228
3.038535712	-1.368933951	-0.811307874
2.968408003	-1.206173571	-0.814453848
27.25948997	-12.28322485	0.540161224
18.02867826	-8.932459568	-0.18050291
11.46808542	-6.218500974	-0.469239553
11.58308281	-5.745482952	-0.585553494
8.768770516	-4.760756695	-0.723793814
7.973888407	-3.959920709	-0.731179766
7.391184237	-3.34307293	-0.74268214
6.889528766	-2.818650864	-0.754933941
6.093816182	-3.313838249	-0.759188783
5.778355476	-2.873744903	-0.767592615
5.523514241	-2.500290139	-0.779814843
5.23051164	-2.141830677	-0.782778922
4.719293803	-2.569464087	-0.788594257
4.568726963	-2.275444529	-0.797897665
4.329848223	-1.962694176	-0.78930812
4.153834767	-1.701452426	-0.791253378
3.830672914	-2.089114536	-0.805304615
3.678805711	-1.835106879	-0.798821085
3.56569636	-1.619160284	-0.800086285
3.465325744	-1.419220403	-0.803884833
3.209374424	-1.755079597	-0.816770958
3.143158032	-1.570855456	-0.818923207
3.049360387	-1.385080558	-0.815328979
2.937790736	-1.20424691	-0.80706317
27.30724701	-12.40567228	0.541859122
17.98329565	-8.97879475	-0.1803235
11.40642809	-4.698428527	-0.344150317
11.44456736	-6.251260091	-0.469059845
11.47961856	-5.73811389	-0.581210342
8.783000563	-4.803429223	-0.726181397
7.973288135	-3.990163716	-0.732243828
7.39085971	-3.370278126	-0.743685048
6.868893131	-2.834840146	-0.75362228
6.074030593	-3.327264743	-0.75799204
5.768624214	-2.891014312	-0.767474538
5.511305814	-2.515165348	-0.779177013
5.230325013	-2.160514774	-0.783739214
4.708786163	-2.582503236	-0.788158666
4.561724799	-2.289450497	-0.797897666
4.332778576	-1.980068918	-0.790946054
4.146774532	-1.71343607	-0.790906179
3.829416774	-2.103697877	-0.806393591
3.670527193	-1.845062113	-0.798248823
3.562493814	-1.630907715	-0.800486649
3.462762724	-1.430591825	-0.804304629
3.166361422	-1.744198191	-0.80718236
3.122666899	-1.572606226	-0.814837665
3.059231205	-1.400901934	-0.81911346
2.935873657	-1.213994933	-0.80755592
27.26360328	-12.48689294	0.541750761
17.94226497	-9.027182869	-0.180188943
15.92515156	-7.301213349	-0.319866387
11.44180788	-4.754112881	-0.345656199
11.42627306	-5.755330235	-0.579400744
8.769095593	-4.83083362	-0.726253697
7.96812865	-4.018196737	-0.732898645
7.408534201	-3.40583166	-0.746511381
6.846386731	-2.850164746	-0.75210874
6.082941821	-3.356449467	-0.760385583
5.767704727	-2.912727275	-0.768537527
5.498156908	-2.529574553	-0.778411629
5.230986546	-2.179598986	-0.784836655
4.696510684	-2.594545273	-0.787432622
4.549389032	-2.300759615	-0.796970932
4.322203783	-1.991288508	-0.790127088
4.149679569	-1.729560031	-0.792468537
3.817782059	-2.112579632	-0.805304614
3.677109351	-1.862524343	-0.800919229
3.579713316	-1.652093638	-0.805490936
3.445722298	-1.435943341	-0.80136612
3.168676096	-1.758165913	-0.809143652
3.114353743	-1.580416193	-0.813929768
3.014339715	-1.391547833	-0.808232989
2.933029679	-1.223369399	-0.807802265
27.254213	-12.58388988	0.542328747
17.85740467	-9.053248014	-0.179614801
15.87363383	-7.336613488	-0.319282231
11.12016955	-4.660528197	-0.336369914
8.757721956	-4.859650133	-0.726543137
7.952209163	-4.040817808	-0.732571236
7.314022585	-3.389602933	-0.738032441
6.860542779	-2.880785385	-0.754631268
6.08130473	-3.379924988	-0.761473548
5.764936836	-2.933560877	-0.769364245
5.484972079	-2.543926888	-0.777646188
5.230667083	-2.198323492	-0.785797003
4.701496979	-2.616158107	-0.789610636
4.533506359	-2.310220197	-0.795426457
4.318758493	-2.005785985	-0.790618468
4.152524377	-1.745717788	-0.794030893
3.843924074	-2.142475558	-0.812201528
3.680121236	-1.878259258	-0.802826636
3.545313114	-1.649429818	-0.798885252
3.449412924	-1.449917683	-0.80325517
3.179454165	-1.776925447	-0.813284206
3.094749356	-1.582425938	-0.810071201
3.034721563	-1.412267593	-0.814855899
2.93640945	-1.235368783	-0.809773095
27.22726304	-12.67292995	0.542563589
17.87585145	-9.131645724	-0.180081282
11.20249561	-4.735489304	-0.339298022
8.745383475	-4.887955211	-0.726760158
7.944210241	-4.067466885	-0.732980482
7.33967807	-3.428886031	-0.741679291
6.859001211	-2.904923728	-0.755438434
6.063100205	-3.394196086	-0.760494363
5.753258591	-2.949874686	-0.769009954
5.477141498	-2.56074267	-0.777646187
5.223898255	-2.214360608	-0.785797003
4.701216396	-2.634923473	-0.790917468
4.529034214	-2.325471879	-0.795889766
4.316157996	-2.020699601	-0.791273642
4.149869197	-1.75960276	-0.794551718
3.810750194	-2.139335206	-0.806575088
3.679579294	-1.892234441	-0.803971046
3.544671375	-1.662378949	-0.799886133
3.453049752	-1.463928198	-0.805144218
3.095940346	-1.595035327	-0.811660023
3.033013504	-1.422809248	-0.815565493
2.945988411	-1.250050315	-0.813468463
22.64345248	-10.62403593	0.451868387
17.7935171	-9.158530399	-0.179534066
15.79935931	-7.420272988	-0.318698046
10.98837617	-4.684765264	-0.333246601
8.732953718	-4.916230458	-0.726977238
7.937008889	-4.094561971	-0.733471624
7.301194985	-3.43823556	-0.738852959
6.850057085	-2.92595317	-0.755438435
6.082098789	-3.429381468	-0.764193486
5.750356825	-2.970701926	-0.769836729
5.471054069	-2.578379925	-0.777901355
5.210704382	-2.227651208	-0.784836654
4.666401146	-2.634256264	-0.786416185
4.532408711	-2.344803542	-0.79774323
4.301909146	-2.030142591	-0.789799501
4.141735006	-1.771164412	-0.794030895
3.809305075	-2.153920529	-0.807664123
3.678986371	-1.906223968	-0.805115515
3.532468304	-1.669896177	-0.798284735
3.454835335	-1.477205879	-0.806613416
3.078066465	-1.597795675	-0.808255406
3.026877349	-1.431277119	-0.815092411
2.93412026	-1.255650892	-0.811251231
27.21858638	-12.87266982	0.543954464
17.68100593	-9.169343453	-0.178681824
15.78555656	-7.472987919	-0.318880615
11.15394342	-4.795845507	-0.338712407
8.723903103	-4.946443306	-0.727483698
7.918218784	-4.115675302	-0.732898644
7.296010232	-3.463181127	-0.73940001
6.826428619	-2.940657202	-0.753824043
6.081922109	-3.453915716	-0.765499066
5.745620004	-2.990622153	-0.770427233
5.462221803	-2.594727213	-0.7777738
5.171099785	-2.229508756	-0.779897992
4.682380284	-2.6622529	-0.790481877
4.53658315	-2.364634378	-0.799751072
4.271607405	-2.031889778	-0.785377133
4.151654673	-1.790492735	-0.79698204
3.812079026	-2.170950327	-0.809660582
3.676601533	-1.91931899	-0.805878454
3.560939022	-1.696740687	-0.8058913
3.475425784	-1.498638257	-0.812490374
3.065382984	-1.603169486	-0.806212636
3.034751429	-1.446409145	-0.818403867
2.9293642	-1.264262641	-0.811004883
27.30532205	-13.01634769	0.54648331
17.63949706	-9.216598007	-0.178547267
15.75172698	-7.516215348	-0.318661539
11.2382246	-4.872990754	-0.34172417
8.723411028	-4.981592597	-0.728713641
7.924095761	-4.149658163	-0.734617523
7.310503914	-3.497582734	-0.741952817
6.810074166	-2.958415213	-0.753016875
6.054901674	-3.463181135	-0.763431917
5.736417892	-3.008235373	-0.770427233
5.453341207	-2.611044354	-0.777646188
5.189670606	-2.256422028	-0.783739213
4.660453037	-2.668739146	-0.788158666
4.538929201	-2.383594201	-0.801450043
4.280475758	-2.052235642	-0.788161623
4.117242636	-1.790652637	-0.791426946
3.802841465	-2.181167523	-0.809116092
3.667220814	-1.928761844	-0.805115515
3.579562637	-1.719109833	-0.811295892
3.44480972	-1.497986589	-0.806403547
3.087160074	-1.626640025	-0.813248844
3.021541489	-1.451505643	-0.816038575
2.977014038	-1.295676452	-0.825293547
27.19766775	-13.0675827	0.545128556
17.60228861	-9.266014234	-0.178457562
15.73850471	-7.569272429	-0.318862347
10.90357892	-4.767679597	-0.331991714
8.718461753	-5.014299267	-0.729581842
7.894579315	-4.165113215	-0.733062378
7.314090738	-3.526915214	-0.743411522
6.798232356	-2.978096869	-0.752714145
6.065782902	-3.494145731	-0.766151856
5.734185996	-3.029531146	-0.771372146
5.442625101	-2.626469455	-0.777263525
5.17455893	-2.268753228	-0.782504504
4.647957888	-2.680553073	-0.787432622
4.534215008	-2.398894468	-0.80191341
4.28748284	-2.071796519	-0.790618467
4.123454109	-1.8084178	-0.793683697
3.802092572	-2.196267505	-0.810386566
3.656949162	-1.93770573	-0.804161783
3.549578952	-1.718131375	-0.805691088
3.46616469	-1.519934807	-0.812490373
3.07613365	-1.632907163	-0.811660023
3.028442677	-1.466273112	-0.81911346
2.949063314	-1.294287392	-0.818641908
27.32122733	-13.23027233	0.54841605
17.57996254	-9.323253161	-0.178520355
15.69721421	-7.608799394	-0.318497238
10.77914247	-4.752714861	-0.328645301
8.715119687	-5.048022299	-0.730594763
7.891444654	-4.194459664	-0.733962707
7.298757452	-3.54716146	-0.742955665
6.789063552	-2.998939473	-0.752714144
6.059333748	-3.515233103	-0.766695809
5.72398787	-3.046642607	-0.77125401
5.434541445	-2.643154964	-0.777263524
5.206530484	-2.301840754	-0.788403515
4.636289832	-2.692812585	-0.786851833
4.527705801	-2.413258642	-0.802067846
4.308600783	-2.098330324	-0.79569595
4.120588826	-1.822254747	-0.794204522
3.791936642	-2.205943689	-0.809660581
3.66311078	-1.955387596	-0.806832187
3.553096948	-1.733308997	-0.80769285
3.457014312	-1.528584714	-0.811440914
3.079697515	-1.646929623	-0.813929767
3.009958527	-1.468739856	-0.815328979
2.942419882	-1.302152265	-0.81790287
27.29937764	-13.32323944	0.548795374
17.54863122	-9.375730101	-0.178493444
15.61809845	-7.629712205	-0.317365435
8.708206374	-5.079761444	-0.731318245
7.883810843	-4.221473139	-0.734453849
7.304833034	-3.57785964	-0.744687955
6.776195776	-3.018134696	-0.752310561
6.043370523	-3.530797498	-0.766043019
5.710238067	-3.061842849	-0.770663446
5.425516337	-2.659378801	-0.77713597
5.180444579	-2.309333894	-0.785522585
4.6339852	-2.71052067	-0.787868214
4.515928297	-2.424801075	-0.801295607
4.30037161	-2.110669765	-0.79536842
4.110481661	-1.832882661	-0.793336501
3.797029975	-2.224526214	-0.812201528
3.637209659	-1.955923526	-0.802445109
3.560951113	-1.750685564	-0.810695376
3.439806648	-1.533609667	-0.808502465
3.077202468	-1.657755899	-0.81461069
3.027236011	-1.488686623	-0.821242299
2.94814662	-1.315517646	-0.820612794
27.33373879	-13.44399725	0.550312729
17.4977699	-9.417676275	-0.178269166
15.56232418	-7.6616935	-0.316708235
10.52447511	-4.717769349	-0.321757269
8.701180791	-5.111506065	-0.732041785
7.876962197	-4.248952664	-0.735026769
7.287571084	-3.597168227	-0.744049709
6.771442191	-3.040947536	-0.752815055
6.035936741	-3.551337922	-0.766478192
5.689459965	-3.073212132	-0.769128031
5.415553595	-2.675133088	-0.776880804
5.188694609	-2.332119775	-0.787854736
4.647812227	-2.737780976	-0.791643511
4.504122934	-2.4362941	-0.800523311
4.300949914	-2.12735214	-0.79667871
4.111126536	-1.84831158	-0.794551719
3.791034231	-2.236664744	-0.812383024
3.625149957	-1.963800069	-0.801109964
3.558197131	-1.762907059	-0.811295893
3.404765344	-1.53052597	-0.801366121
3.044710807	-1.65232399	-0.807347507
3.013078046	-1.493221185	-0.818640436
2.935258405	-1.320579712	-0.818149216
27.25473984	-13.50914312	0.549554022
17.36330691	-9.414120458	-0.177192662
15.51187554	-7.696071049	-0.316160587
13.96954536	-6.313619953	-0.427671147
8.692325367	-5.142239551	-0.732620547
7.865641101	-4.274050583	-0.735190503
7.224786754	-3.593785705	-0.738761764
6.792895903	-3.075659949	-0.75624566
6.008764063	-3.560211569	-0.764411044
5.677387762	-3.089228854	-0.76877374
5.406432776	-2.691293302	-0.77675325
5.181515464	-2.348027378	-0.787854736
4.650453378	-2.758589436	-0.793531131
4.495759656	-2.449628378	-0.800368875
4.297051963	-2.141857421	-0.797170092
4.111715459	-1.863761694	-0.795766879
3.786690727	-2.249791756	-0.812927512
3.598427301	-1.963627306	-0.796532206
3.532610564	-1.763749092	-0.806691969
3.400053574	-1.540964505	-0.80136612
3.065263718	-1.675671769	-0.814156742
3.030213987	-1.513310904	-0.824553753
2.922366909	-1.32557522	-0.815685637
27.31155683	-13.64184122	0.551541002
17.32293468	-9.461115772	-0.177076045
15.41486025	-7.706960708	-0.314663676
10.48532326	-4.777698144	-0.321450514
8.688503695	-5.176029325	-0.733633468
7.872599362	-4.309168001	-0.737073056
7.252008124	-3.635122558	-0.74268214
6.76080113	-3.086157241	-0.753723132
5.993544994	-3.576082799	-0.763867091
5.674849718	-3.110450686	-0.769718594
5.391058534	-2.704309645	-0.7757327
5.212128369	-2.381200876	-0.793616538
4.640269762	-2.771829061	-0.793240738
4.493419581	-2.466261844	-0.801295606
4.300157616	-2.159901211	-0.79897182
4.099708087	-1.873502137	-0.794551719
3.764580749	-2.252310564	-0.809660581
3.636258647	-1.998773817	-0.806259925
3.527182812	-1.774578737	-0.806691969
3.389974349	-1.548950409	-0.800106793
3.05413654	-1.681779677	-0.81256792
3.002991231	-1.511244165	-0.818403867
2.926218888	-1.338162186	-0.81790287
27.20080687	-13.69095517	0.550150128
17.23074483	-9.479512978	-0.17643014
15.29827968	-7.707431623	-0.312765149
10.46789074	-4.808592295	-0.321366859
8.711926843	-5.226262605	-0.736961612
7.871560393	-4.340037471	-0.738219014
7.24971024	-3.661844025	-0.743593852
6.775703748	-3.118114222	-0.756447481
5.985101557	-3.595989743	-0.764193486
5.670496153	-3.130725957	-0.770427234
5.400439592	-2.729784938	-0.778284017
5.231789596	-2.40961159	-0.797732119
4.596982454	-2.765142845	-0.787287425
4.495343648	-2.485294239	-0.802994578
4.32783784	-2.190457831	-0.805359651
4.101990884	-1.889779757	-0.796114075
3.762707024	-2.266894304	-0.810749558
3.632685768	-2.011346811	-0.806832188
3.509487513	-1.77918926	-0.803889538
3.377213935	-1.555661938	-0.798217744
2.996607485	-1.519571185	-0.817930842
2.916818665	-1.344698889	-0.816424733
27.23447117	-13.8127836	0.551685484
23.18764643	-10.72068924	0.221599219
17.0144088	-9.428608314	-0.174510378
15.26475492	-7.749351293	-0.312564341
13.77115539	-6.377236801	-0.423376572
8.736829398	-5.277719687	-0.740434417
7.859079993	-4.364650568	-0.738300852
7.222466922	-3.675938049	-0.741952817
6.734517767	-3.124233173	-0.752915965
5.974891685	-3.614849326	-0.764302265
5.653922	-3.144247033	-0.769482381
5.400877389	-2.75084201	-0.779559734
5.220778591	-2.423982655	-0.79718334
4.590170091	-2.78025835	-0.78757782
4.475612906	-2.49234462	-0.800832241
4.266611108	-2.175937524	-0.795204628
4.076523971	-1.893229616	-0.792294968
3.623925872	-2.021047773	-0.806259924
3.518845373	-1.797524857	-0.807292486
3.420311478	-1.588252119	-0.809551924
3.006640084	-1.536273154	-0.821951891
2.91531634	-1.354866574	-0.817163774
27.27120374	-13.93676608	0.55329314
22.85645553	-10.65279843	0.218745409
16.9670651	-9.470528309	-0.174321983
15.24802944	-7.799788868	-0.312710372
10.17279567	-4.748841347	-0.313196045
8.715483769	-5.301389336	-0.740000317
7.855220132	-4.394093277	-0.739201239
7.220902537	-3.703077546	-0.742955666
6.75734511	-3.160052042	-0.756548333
5.969716031	-3.636783325	-0.765063834
5.644248909	-3.161578238	-0.76948238
5.395942002	-2.769210119	-0.780069951
5.216008745	-2.441247997	-0.797594909
4.587531722	-2.797933768	-0.788594257
4.471392505	-2.507997117	-0.801450044
4.276586467	-2.197583799	-0.798316646
4.07872346	-1.909485279	-0.793857325
3.626267005	-2.036964024	-0.808167333
3.522896553	-1.813244199	-0.8094944
3.40922393	-1.595836465	-0.808082669
2.975997068	-1.532147747	-0.814855899
2.908512832	-1.362570773	-0.816424733
22.64717982	-10.63995525	0.217053948
16.86994274	-9.484314652	-0.173622254
15.13871011	-7.802558631	-0.310957877
13.57619677	-6.388409898	-0.418580067
8.701729636	-5.329665963	-0.740217338
7.840834365	-4.417683019	-0.739119344
7.198006663	-3.719270931	-0.741770428
6.726920074	-3.171011363	-0.754227626
5.962767265	-3.65767998	-0.765607845
5.631063228	-3.176927917	-0.769009953
5.375967938	-2.779829315	-0.77841163
5.202223651	-2.454280571	-0.796634619
4.581455599	-2.813548302	-0.789029849
4.453354107	-2.515871645	-0.799596636
4.269824173	-2.210693893	-0.798316646
4.096893008	-1.933337547	-0.798544397
3.617437525	-2.046629388	-0.807595128
3.512098582	-1.821337407	-0.808293367
3.40873319	-1.608374426	-0.809132128
2.960932591	-1.535902098	-0.812017468
2.906071714	-1.372315343	-0.816917427
15.10760191	-7.845280835	-0.310811845
13.5502111	-6.427032146	-0.418384833
8.696373804	-5.363143241	-0.741157899
7.835045291	-4.446144344	-0.739856056
7.187445431	-3.741796407	-0.741861622
6.706376377	-3.18651077	-0.753016876
5.958283512	-3.680135196	-0.766478193
5.621290061	-3.194188969	-0.769009954
5.362136305	-2.793559797	-0.777646187
5.183934666	-2.46512458	-0.794988398
4.452484491	-2.533431424	-0.800832241
4.263896624	-2.224239272	-0.79848044
4.081159737	-1.941244379	-0.796634843
3.625640686	-2.065979989	-0.810837739
3.510835965	-1.834372467	-0.809294189
3.397602125	-1.615885206	-0.807662875
2.969123249	-1.551729409	-0.815565493
2.928100969	-1.393720483	-0.824308105
15.0896633	-7.894837726	-0.310939637
13.52952722	-6.468142179	-0.418356967
8.704450721	-5.405056026	-0.743256101
7.823963596	-4.471644725	-0.740101568
7.191805682	-3.772155534	-0.743502716
6.725282209	-3.220822005	-0.756245659
5.945276539	-3.697347844	-0.766260635
5.614049639	-3.212899352	-0.769364245
5.36056635	-2.813685076	-0.778666738
5.160269174	-2.473310825	-0.792519038
4.439547815	-2.544132114	-0.799905509
4.262291889	-2.240063854	-0.799463142
4.097385824	-1.964399752	-0.800974776
3.62183948	-2.078559243	-0.811409944
3.493920959	-1.839201928	-0.806691969
3.389102062	-1.624610725	-0.806823342
2.973805602	-1.565810699	-0.818167354
2.885363146	-1.384251716	-0.813468463
15.01053344	-7.912189686	-0.309807805
13.47089791	-6.490961352	-0.417157841
8.690364491	-5.433321996	-0.743473122
7.821437102	-4.50209061	-0.74116563
7.185482208	-3.796993544	-0.74404971
6.736872717	-3.251819118	-0.758667276
5.930535067	-3.713459983	-0.765825461
5.596423017	-3.225645189	-0.768301313
5.357169444	-2.832899766	-0.779432121
5.138385928	-2.482236537	-0.790324096
4.416318865	-2.54885086	-0.79712537
4.26760491	-2.25959244	-0.80175625
4.095773257	-1.97910331	-0.801842738
3.620544783	-2.092608552	-0.812554354
3.47181609	-1.841190797	-0.802888715
3.377939157	-1.632023272	-0.805354087
2.960404402	-1.570373651	-0.815802004
2.925601946	-1.414614104	-0.826032645
14.9941356	-7.962424044	-0.309972105
13.47250014	-6.54273945	-0.417827112
10.06184187	-5.826525082	-0.52655932
9.930195637	-4.826536847	-0.712636527
8.688847925	-5.469521858	-0.744775424
7.810174741	-4.527564737	-0.741411201
7.186984877	-3.82603982	-0.745417279
6.715234187	-3.266814422	-0.757355558
5.914069112	-3.728456351	-0.765172671
5.590794828	-3.245292047	-0.768891818
5.346702279	-2.848389345	-0.779177013
5.124511948	-2.49495418	-0.789363805
4.410186691	-2.563380987	-0.7974343
4.271097642	-2.278246206	-0.803721716
4.081713632	-1.987779056	-0.800280382
3.609017404	-2.100743394	-0.811409944
3.473064352	-1.855527057	-0.804490055
3.366762951	-1.639382774	-0.803884833
2.941861727	-1.572121637	-0.812017468
2.93083164	-1.428253335	-0.828742512
14.96522872	-8.00603007	-0.309880821
13.42542905	-6.570858467	-0.416990501
9.93505763	-4.866637162	-0.714053568
8.668656751	-5.494017543	-0.744486043
7.799690369	-4.553514971	-0.74173861
7.182233637	-3.851836395	-0.74614666
6.704287129	-3.286963047	-0.757254648
5.902602551	-3.74658295	-0.765172671
5.603958102	-3.275960021	-0.772080785
5.336190575	-2.863841435	-0.778921847
5.116833812	-2.510664124	-0.789363806
4.424470552	-2.589875899	-0.801450042
4.258874095	-2.288537147	-0.802738954
4.080016305	-2.002461654	-0.801148345
3.590699394	-2.104855857	-0.808739596
3.466492513	-1.865709168	-0.804289902
3.376639153	-1.657026593	-0.807453006
2.951568573	-1.588969439	-0.816038574
2.926436173	-1.437238287	-0.828742513
14.90715113	-8.033880161	-0.309187142
13.38548412	-6.602288304	-0.416376991
9.942450987	-4.908138087	-0.715663847
8.659328159	-5.525415251	-0.745137165
7.786542642	-4.577927643	-0.741820447
7.181772311	-3.880006613	-0.747331898
6.686143478	-3.303549598	-0.75634657
5.896943622	-3.768421283	-0.76593424
5.605005673	-3.299686198	-0.773616201
5.329124296	-2.881142412	-0.779177013
5.11177048	-2.52766762	-0.789775374
4.412248712	-2.600929149	-0.800677805
4.271786343	-2.312393801	-0.806506147
4.079149925	-2.017589273	-0.802189935
3.594368825	-2.1218503	-0.811028473
3.483146483	-1.88847698	-0.8094944
3.375045085	-1.669111811	-0.808292537
2.943263385	-1.596164444	-0.815092411
2.928961798	-1.449648959	-0.830713398
27.63459609	-13.71507763	0.267615719
14.87803979	-8.077191883	-0.309095857
13.37501187	-6.648217477	-0.416683746
9.943428333	-4.946618398	-0.716823217
8.644852825	-5.553573124	-0.745354244
7.773318883	-4.602302879	-0.741902343
7.169834749	-3.902021536	-0.747331898
6.685773761	-3.32892488	-0.757456469
5.902910683	-3.797789879	-0.768219005
5.590585377	-3.314334586	-0.773025639
5.321130852	-2.897952905	-0.779304567
5.097785823	-2.540245975	-0.788815026
4.387256472	-2.60436682	-0.797588734
4.264672172	-2.325488439	-0.806506147
4.071178484	-2.029215862	-0.80184274
3.59712416	-2.138385539	-0.813126618
3.486794982	-1.904320106	-0.811696256
3.344531364	-1.666811229	-0.80220571
2.92016424	-1.456465156	-0.829481609
27.55124989	-13.77921901	0.267216725
14.81371336	-8.101211446	-0.308274386
13.29377728	-6.658777884	-0.414787454
9.942479564	-4.984256764	-0.717853782
8.638661335	-5.587110485	-0.746294806
7.778851768	-4.637868296	-0.743784897
7.157829758	-3.923999936	-0.747331898
6.65507655	-3.339158824	-0.755135762
5.582095761	-3.332488674	-0.773261852
5.321780354	-2.919511703	-0.78070778
5.088197903	-2.554984785	-0.788540665
4.360589345	-2.60666199	-0.794190794
4.270487237	-2.345685272	-0.808963049
4.072853753	-2.045674616	-0.803405095
3.486945189	-1.91831436	-0.813097443
3.351634181	-1.683207447	-0.805144219
2.909620301	-1.462370603	-0.827757126
27.49991598	-13.85918056	0.267129971
14.77127498	-8.136972379	-0.307909278
13.25097608	-6.688270786	-0.414090288
9.966333309	-5.034534331	-0.720687863
8.626494351	-5.61685251	-0.746728906
7.773985568	-4.667354758	-0.744685284
7.148372786	-3.947385445	-0.747605424
6.639473445	-3.356867106	-0.754530357
5.543760681	-3.332715119	-0.769364244
5.331896779	-2.94637861	-0.783514265
5.061775065	-2.561191703	-0.785659795
4.353417954	-2.620537384	-0.794345288
4.246006721	-2.34922423	-0.805687236
4.06831612	-2.059049817	-0.803752293
3.475901662	-1.926153793	-0.81189641
3.369136377	-1.704960363	-0.810601383
2.880046062	-1.458591742	-0.820612794
27.48847363	-13.95933013	0.267433567
14.6675576	-8.138592447	-0.306266306
13.24910498	-6.738408988	-0.414675904
10.40028091	-5.776981609	-0.654108459
9.957955074	-5.06870831	-0.721203145
8.607553639	-5.642197917	-0.746584187
7.770717022	-4.697885744	-0.745749346
7.13709887	-3.969782188	-0.74769656
6.621165541	-3.373156478	-0.753622281
5.551349079	-3.360506337	-0.771844572
5.324565528	-2.963687515	-0.783769431
5.061835583	-2.580758315	-0.786894445
4.356341443	-2.640538713	-0.79635313
4.243088091	-2.364640924	-0.806506146
4.076016801	-2.078680078	-0.806529868
3.469120362	-1.936331113	-0.811696256
3.314241383	-1.689972403	-0.798637538
2.879874102	-1.469623354	-0.821844584
27.49269759	-14.06774011	0.267893298
14.62768231	-8.175260735	-0.305955974
13.14118846	-6.734348134	-0.411943001
10.26835781	-5.744996002	-0.646916861
9.954788972	-5.105610913	-0.722104904
8.590202934	-5.6685793	-0.746584187
7.754565066	-4.720667421	-0.745585613
7.128361518	-3.993606325	-0.74806128
