x	y	z
4.289717852	-0.918309474	-0.809660582
4.556878286	-0.473065424	-0.807571458
4.289763196	-0.932092278	-0.81020507
4.540717126	-0.485473103	-0.804967511
4.29072447	-0.946095677	-0.810931053
4.550953147	-0.500693911	-0.807050634
4.281084147	-0.957752087	-0.809660581
4.534717027	-0.512993171	-0.804446686
4.27620783	-0.970446516	-0.80929759
4.547795376	-0.528608632	-0.807050635
4.276085027	-0.984222952	-0.809842076
4.121259255	-0.791165715	-0.815415494
4.542240787	-0.54209172	-0.806356241
4.272087843	-0.997113623	-0.809660581
4.564016548	-0.558897511	-0.810522604
4.269008493	-1.010215488	-0.80966058
4.554463102	-0.57191542	-0.809133816
4.270670731	-1.024454814	-0.810568062
4.558547626	-0.586639862	-0.810175406
4.27515195	-1.039410789	-0.812020031
4.063155813	-0.831836133	-0.805878456
4.552821173	-0.60010772	-0.809481014
4.279581591	-1.054403927	-0.813472
4.084611785	-0.849293638	-0.810646948
4.541199053	-0.612755838	-0.80774503
4.279188894	-1.068243094	-0.814016489
4.092551736	-0.86405163	-0.812745146
4.537346466	-0.626415809	-0.807397832
4.274938025	-1.081125347	-0.813834992
4.080283253	-0.874546091	-0.810837738
4.530527422	-0.639644851	-0.806529868
4.260169473	-1.091307138	-0.811657038
4.079499317	-0.887477423	-0.811219208
4.523670177	-0.652837967	-0.805661905
4.252042224	-1.103137338	-0.810749559
4.07196472	-0.898930913	-0.810265476
4.529440478	-0.667862576	-0.807050636
4.252442168	-1.117176716	-0.811475543
4.074935247	-0.91270666	-0.811409945
4.548794386	-0.684981773	-0.810869801
4.252796246	-1.131228849	-0.812201528
4.080730956	-0.927161487	-0.813126617
4.554458719	-0.700131126	-0.812258532
4.239809764	-1.141713877	-0.810386565
4.078823758	-0.939897028	-0.813317351
4.556180984	-0.714711169	-0.812952926
4.23818479	-1.155233265	-0.810749558
4.071141505	-0.951289451	-0.812363618
4.554939172	-0.728841589	-0.813126553
4.240308619	-1.169799554	-0.811838536
4.060562386	-0.961964729	-0.810837739
4.557541564	-0.743605411	-0.813994516
4.253748657	-1.187562927	-0.815105524
4.060455483	-0.975105571	-0.811409944
4.558153102	-0.758068987	-0.814515282
4.272797636	-1.207023737	-0.819461432
4.079381928	-0.992897631	-0.815796964
4.554834967	-0.77188507	-0.814341713
4.271911388	-1.220937525	-0.820005922
4.072504247	-1.00446801	-0.815034024
4.564090967	-0.787865749	-0.816424894
4.265311107	-1.233218402	-0.819461432
4.071308472	-1.017433588	-0.815415496
4.550012881	-0.799818462	-0.814341712
4.260563718	-1.246022399	-0.819279936
4.02819958	-1.019800841	-0.807404392
4.544629383	-0.813253544	-0.813820945
4.248234043	-1.256577427	-0.817646471
4.036462651	-1.035080469	-0.809693272
4.539206721	-0.826663125	-0.813300123
4.240590148	-1.268477531	-0.816920485
4.048469761	-1.051407335	-0.812745146
4.54149064	-0.841482423	-0.814168143
4.241385216	-1.282905148	-0.817827968
4.061364173	-1.068067149	-0.815987699
4.54082335	-0.855776324	-0.814515283
4.241190746	-1.297061847	-0.818553951
4.05617111	-1.080017114	-0.815606229
4.538176168	-0.869703315	-0.814515281
4.233433535	-1.30890558	-0.817827967
4.053786526	-1.092711662	-0.815796965
4.536453509	-0.883810516	-0.81468891
4.237845582	-1.324527701	-0.819461433
4.045679804	-1.103851365	-0.814843289
4.525026193	-0.89600235	-0.813126553
4.230010915	-1.336338039	-0.818735447
4.045113213	-1.117042072	-0.815415497
4.513566863	-0.908132464	-0.811564139
4.231512135	-1.351103881	-0.819824425
4.052066727	-1.132353167	-0.817513639
4.505935038	-0.920989551	-0.810696174
4.236705875	-1.367099547	-0.821639387
4.065576182	-1.149587234	-0.820946984
4.50405237	-0.935009386	-0.810869801
4.236231343	-1.381310597	-0.822365371
4.051648804	-1.159084885	-0.818848842
4.529108071	-0.954714	-0.815904069
4.233841721	-1.394916025	-0.822728364
4.045244865	-1.170691013	-0.818276579
4.530973204	-0.969635092	-0.816772093
4.226743221	-1.406967034	-0.822183876
4.041634139	-1.183096108	-0.818276579
4.528939169	-0.983740366	-0.816945661
4.227999272	-1.421808576	-0.82327291
4.035161813	-1.194654133	-0.817704374
4.517244341	-0.99572246	-0.815383304
4.206857212	-1.429079584	-0.820005923
4.037119867	-1.208717497	-0.818848841
4.52089549	-1.011080982	-0.816598463
4.214545088	-1.44612846	-0.822365373
4.036211073	-1.221950845	-0.819421046
4.529297295	-1.027560849	-0.818681645
4.214734108	-1.460661753	-0.82327291
4.033381951	-1.234615371	-0.819611782
4.200951203	-1.47033689	-0.82145789
4.02394853	-1.245242656	-0.818467313
4.197347696	-1.483545971	-0.821639386
4.028541166	-1.260219707	-0.820183987
4.033079813	-1.275236747	-0.821900661
4.041303825	-1.291488616	-0.824380272
4.029849611	-1.301467637	-0.822854335
4.02677093	-1.314129414	-0.823045127
4.029246334	-1.328629113	-0.824380273
4.012112651	-1.336640681	-0.821709925
3.855776504	-1.130179312	-0.820904161
4.014505809	-1.351135176	-0.823045129
3.851351626	-1.141724861	-0.820704007
4.009412032	-1.363129213	-0.822854335
3.857215598	-1.156348786	-0.82270571
4.008924859	-1.376698813	-0.823617333
3.861151134	-1.170450974	-0.824307051
4.000045232	-1.387383164	-0.822663601
3.864099274	-1.184301075	-0.825708295
3.993916837	-1.398999585	-0.822282129
3.854832405	-1.19441044	-0.824507261
3.991457101	-1.411900833	-0.8226636
3.850214829	-1.205938444	-0.82430705
3.98987987	-1.42513048	-0.823235863
3.841826553	-1.216266542	-0.823306227
3.985488696	-1.437364485	-0.823235862
3.826879268	-1.224464434	-0.820904161
3.979215792	-1.448913273	-0.822854336
3.809120918	-1.231677835	-0.817901576
3.984886583	-1.46484013	-0.824952536
3.805324243	-1.243358201	-0.817901576
3.98405509	-1.478424768	-0.825715476
3.804282857	-1.25594844	-0.818502093
3.974904089	-1.488919027	-0.824761742
3.839447599	-1.280634091	-0.826909327
3.976745005	-1.503536986	-0.826096946
3.838286053	-1.293345961	-0.827509844
3.985870428	-1.520979978	-0.828958029
3.824097434	-1.301642764	-0.82530793
3.994926573	-1.538493087	-0.831819172
3.837690181	-1.319421202	-0.829111184
3.995677509	-1.552875658	-0.832963582
3.845656365	-1.335366891	-0.831713404
3.991808231	-1.565485255	-0.833154373
3.826748599	-1.341971316	-0.828510668
3.985161236	-1.57700221	-0.832772847
3.825384024	-1.354686507	-0.829111184
3.97574606	-1.587401133	-0.831819172
3.819364914	-1.365756478	-0.828710879
3.969946597	-1.599224285	-0.831628436
3.810549028	-1.375804096	-0.827709997
3.945924179	-1.603635049	-0.827622886
3.813674443	-1.390172573	-0.829311395
3.940985593	-1.615733423	-0.827622885
3.816747276	-1.404573227	-0.830912735
3.940545815	-1.629692349	-0.828576561
3.804154207	-1.413205468	-0.829111184
3.940963243	-1.644041851	-0.829721029
3.810809252	-1.428997898	-0.831513251
3.944043656	-1.659551198	-0.831437699
3.803658294	-1.439642049	-0.830912735
3.950681117	-1.676628928	-0.833917314
3.801054081	-1.452004014	-0.831313098
3.941006305	-1.686810339	-0.83296358
3.8066375	-1.467535416	-0.833514955
3.924997507	-1.694224857	-0.830674702
3.799377888	-1.478141465	-0.832914437
3.931482388	-1.711351908	-0.833154375
3.805769027	-1.494087282	-0.835316504
3.912730506	-1.717487217	-0.830293233
3.804811007	-1.507199409	-0.836117232
3.907442911	-1.729483178	-0.830293233
3.801078845	-1.519229022	-0.836317385
3.904807799	-1.742663088	-0.830865438
3.7954914	-1.530516956	-0.836117232
3.9048142	-1.757051512	-0.832009906
3.783517767	-1.539200563	-0.834515835
3.902087203	-1.77023971	-0.832582112
3.791467196	-1.556008802	-0.837318265
3.905564644	-1.786285687	-0.834489519
3.778528382	-1.56426061	-0.835516715
3.912546191	-1.804013808	-0.837159925
3.772807301	-1.575468138	-0.835316504
3.906993422	-1.816008901	-0.837159926
3.760732687	-1.583993042	-0.833715165
3.90407024	-1.829236364	-0.837732131
3.755855297	-1.595523273	-0.833715164
3.899327271	-1.841624467	-0.837922865
3.756346222	-1.609353707	-0.834916199
3.887454454	-1.850625116	-0.836587661
3.753189897	-1.621647604	-0.835316504
3.887068942	-1.865090917	-0.83773213
3.751789842	-1.63472001	-0.836117231
3.894584442	-1.883418027	-0.840593213
3.747654011	-1.646616846	-0.836317385
3.893200068	-1.897507972	-0.841546947
3.740793128	-1.657312971	-0.835917022
3.885598032	-1.908577638	-0.841165476
3.733007254	-1.667582886	-0.835316505
3.880604108	-1.920925006	-0.841356212
3.725193557	-1.677820699	-0.834715988
3.612798469	-1.466690855	-0.837047724
3.863273027	-1.927125125	-0.83887654
3.725381018	-1.691672077	-0.835917021
3.858219597	-1.939409352	-0.839067276
3.723737014	-1.70472473	-0.836717749
3.351008981	-1.84591173	-0.854253461
3.856629959	-1.953454922	-0.840021008
3.71759984	-1.715730418	-0.836517538
3.592828946	-1.497247432	-0.835578471
3.709653609	-1.725887917	-0.835917021
3.591823918	-1.509778389	-0.836418061
3.843698297	-1.976632953	-0.839830274
3.714985688	-1.742252985	-0.838319087
3.579973788	-1.517737843	-0.834738881
3.707851634	-1.752804806	-0.837918782
3.58878533	-1.534479744	-0.837887257
3.706879088	-1.766279278	-0.838919605
3.585856502	-1.546257122	-0.838307053
3.702326029	-1.778067653	-0.839119758
3.564060018	-1.549842987	-0.834319143
3.712727356	-1.797101448	-0.842722858
3.579882962	-1.569801006	-0.839146643
3.695748983	-1.802899086	-0.840120638
3.546435346	-1.568123932	-0.832430094
3.292896268	-1.920709326	-0.851202596
3.696355223	-1.817254891	-0.841521825
3.553216645	-1.584172643	-0.835158676
3.286988167	-1.930802716	-0.851202596
3.692518344	-1.829456479	-0.841922188
3.568850257	-1.604286355	-0.839986175
3.284409102	-1.942865543	-0.852074255
3.695654064	-1.845152941	-0.843923892
3.565692735	-1.616035008	-0.84040597
3.272563657	-1.949436619	-0.850548794
3.673346513	-1.84811585	-0.840120639
3.556271547	-1.624935124	-0.839356511
3.270752048	-1.96197769	-0.851638425
3.681641224	-1.866465243	-0.843323375
3.549493531	-1.635019919	-0.838936717
3.265552976	-1.972507694	-0.851856341
3.697710566	-1.88889413	-0.848327662
3.546234158	-1.646725466	-0.839356511
3.262821284	-1.984545457	-0.852728056
3.695382619	-1.902023174	-0.849128389
3.53053917	-1.652623361	-0.836837798
3.250891394	-1.990978467	-0.851202595
3.692139181	-1.914704624	-0.849728906
3.521915497	-1.661778281	-0.835998266
3.255567099	-2.007602214	-0.854035545
3.681905823	-1.923754405	-0.848728026
3.524747176	-1.676354834	-0.837887257
3.263487899	-2.026332636	-0.857740213
3.672518411	-1.933215854	-0.847927356
3.531049332	-1.69265503	-0.840615897
3.225808976	-2.016675527	-0.84945922
3.659645587	-1.940801599	-0.846325959
3.51263421	-1.697100099	-0.837467519
3.255948914	-2.0494381	-0.859047759
3.65713065	-1.95386685	-0.847126628
3.523233964	-1.715573367	-0.84124556
3.259538532	-2.065686866	-0.861662853
3.664923052	-1.972506981	-0.850329424
3.508299136	-1.72163636	-0.838936717
3.244958005	-2.070427666	-0.859483589
3.669189985	-1.989345322	-0.852731433
3.512641214	-1.737159218	-0.841245561
3.247623452	-2.086175567	-0.861880768
3.661349571	-1.99965356	-0.852331126
3.518671103	-1.75359714	-0.843974143
3.24284687	-2.097189219	-0.862316597
3.656055965	-2.011349341	-0.852531279
3.530749236	-1.7731598	-0.848171978
3.2380333	-2.108193363	-0.862752427
3.653296052	-2.024456038	-0.85333195
3.521802947	-1.782217756	-0.847332387
3.232366626	-2.118652526	-0.862970342
3.641079285	-2.032311997	-0.851930763
3.512834525	-1.791237592	-0.846492855
3.211188404	-2.118884042	-0.859047759
3.630556738	-2.04107247	-0.850929939
3.513410272	-1.805134078	-0.847962052
3.228248428	-2.144386302	-0.86536752
3.626835569	-2.053649516	-0.851530457
3.528694336	-1.826692058	-0.852999477
3.226521978	-2.157535425	-0.866675009
3.607751671	-2.057486105	-0.848527872
3.51787208	-1.834796589	-0.85174015
3.209362404	-2.160339147	-0.863842058
3.606519855	-2.07147285	-0.849728906
3.504437021	-1.841487348	-0.849851101
3.195447898	-2.165247918	-0.861880767
3.613717329	-2.090376962	-0.852931643
3.485809239	-1.845368384	-0.846702724
3.185564996	-2.172841344	-0.86100905
3.60051429	-2.097508409	-0.851330245
3.480994025	-1.856514086	-0.846912593
3.171642757	-2.177632691	-0.859047761
3.614343865	-2.120443418	-0.856134379
3.486478521	-1.87320057	-0.849641231
3.16012968	-2.184023654	-0.857740214
3.60360393	-2.12903038	-0.8551335
3.472116839	-1.879234331	-0.847542315
3.173443549	-2.207642098	-0.863188257
3.584424931	-2.132561664	-0.852130973
3.488654226	-1.902046384	-0.852999478
3.173051384	-2.221845945	-0.864931633
3.594674888	-2.153619327	-0.85613438
3.477660488	-1.90991657	-0.851740151
3.172601704	-2.236068453	-0.866675009
3.590567507	-2.166155673	-0.856734896
3.464084693	-1.916317332	-0.849851102
3.166522652	-2.24635595	-0.866892924
3.583904992	-2.177161364	-0.856734897
3.466729961	-1.931694982	-0.851950019
3.161204563	-2.257194277	-0.86732881
3.585566609	-2.193258731	-0.8587366
3.46334516	-1.94375726	-0.852579683
3.146339411	-2.261186493	-0.865149547
3.57965509	-2.204762725	-0.858936811
3.459067732	-1.955335747	-0.852999477
3.130688835	-2.26453674	-0.862752427
3.574539394	-2.216767177	-0.859337116
3.450503547	-1.964487574	-0.852369813
3.12372663	-2.274130788	-0.862752427
3.564397344	-2.22564764	-0.858536446
3.44106771	-1.973118903	-0.851530224
3.124607605	-2.289472008	-0.864931633
3.554234531	-2.234486638	-0.857735776
3.420604543	-1.975354622	-0.847962053
3.124638063	-2.30426067	-0.866892923
3.549018169	-2.246428434	-0.858136082
3.423824928	-1.991246457	-0.850270895
3.114419296	-2.311509453	-0.866021265
3.550372122	-2.262571667	-0.860137787
3.423605411	-2.005200166	-0.851740149
3.095584239	-2.312292661	-0.862752427
3.539290851	-2.270808016	-0.859136964
3.431754144	-2.024138477	-0.855308265
3.075213674	-2.31180903	-0.859047759
3.545475349	-2.290161378	-0.8623397
3.428890326	-2.036654723	-0.856147854
3.061880183	-2.316522078	-0.857304383
3.525290723	-2.292481913	-0.859136964
3.417591485	-2.044153451	-0.854888527
3.072618525	-2.33950312	-0.862316598
3.521519752	-2.305433095	-0.859937633
3.420516933	-2.060178008	-0.857197314
3.069299857	-2.351886807	-0.863406228
3.516066465	-2.317304521	-0.860337998
3.417524103	-2.072690189	-0.858036845
3.069798645	-2.367252045	-0.865585435
3.519553838	-2.335122391	-0.862940217
3.407811437	-2.081127077	-0.857197313
3.062521554	-2.376659083	-0.865585436
3.524594466	-2.354071612	-0.865942801
3.393081952	-2.086450939	-0.855098395
3.064445883	-2.39325219	-0.868200471
3.514916285	-2.363233796	-0.865342283
3.393315123	-2.100968468	-0.856777518
3.055554245	-2.401436172	-0.86776464
3.50927234	-2.375104711	-0.865742648
3.389342572	-2.112920863	-0.857407182
3.058889321	-2.419275285	-0.870815564
3.50358853	-2.386963053	-0.866142953
3.379531842	-2.121230003	-0.856567649
3.040761845	-2.420139613	-0.86776464
3.489784853	-2.393267732	-0.864541614
3.371355211	-2.130543618	-0.856147855
3.033322796	-2.429457216	-0.867764642
3.490489132	-2.409529079	-0.866543318
3.377176587	-2.148749551	-0.859296232
3.034973577	-2.446101091	-0.870379676
3.473425212	-2.413517425	-0.86414125
3.400206992	-2.178086315	-0.866852313
3.016842653	-2.446793956	-0.86732881
3.470821561	-2.427531583	-0.865342284
3.382826849	-2.181619066	-0.864123731
3.001004715	-2.449250079	-0.864931634
3.459351784	-2.4353486	-0.864341403
3.389238459	-2.200505774	-0.867481976
2.982163058	-2.449154326	-0.861662853
3.452663426	-2.446516678	-0.864541614
3.394747623	-2.218917585	-0.870630353
2.978396713	-2.461400473	-0.862752427
3.4475345	-2.458804454	-0.865142131
3.387924074	-2.229322147	-0.870630353
2.969330435	-2.469278475	-0.862316598
3.440770675	-2.469941228	-0.865342284
3.368842191	-2.231606458	-0.867481978
2.961740789	-2.478376631	-0.862316597
3.429205983	-2.477616736	-0.864341404
3.357099031	-2.238676592	-0.866222648
2.953376861	-2.486822882	-0.862098683
3.412872136	-2.481787344	-0.862139547
3.319367487	-2.228257818	-0.858246772
2.966583001	-2.513537414	-0.868200471
3.408404543	-2.494560674	-0.862940216
3.340869322	-2.257590869	-0.865592985
2.969997864	-2.532124672	-0.871469308
3.401524083	-2.505586969	-0.863140369
3.337969451	-2.27057966	-0.866642444
2.955548597	-2.535505291	-0.869508016
3.400117632	-2.520678886	-0.864741767
3.316466671	-2.270866537	-0.862864403
2.95736028	-2.552851464	-0.872340967
3.375877748	-2.518794322	-0.86053815
3.319144495	-2.287688991	-0.865383059
2.943619538	-2.556792494	-0.870597648
3.374401996	-2.533846162	-0.862139548
3.308093646	-2.295074666	-0.8643336
2.940905736	-2.570307177	-0.872123053
3.375992216	-2.551275156	-0.864541614
3.301036962	-2.305212959	-0.8643336
2.93300618	-2.579317606	-0.872123052
3.375947511	-2.567551515	-0.866543316
3.320345498	-2.333883603	-0.871260017
2.932388246	-2.594771491	-0.874302316
3.37116677	-2.580278895	-0.867343988
3.298004632	-2.333330166	-0.867272109
2.918582504	-2.598563808	-0.87255894
3.37022042	-2.595990211	-0.869145538
3.291626779	-2.344004418	-0.867481976
2.911323335	-2.608156812	-0.872776854
3.367660594	-2.61051934	-0.870546724
3.282035929	-2.352383262	-0.866852313
2.893884001	-2.608581397	-0.869943846
3.364270738	-2.624454696	-0.871747757
3.274803677	-2.362441148	-0.866852313
2.883698625	-2.615480443	-0.869290102
3.36622183	-2.642628796	-0.874349977
3.285737187	-2.385689384	-0.871679812
2.875660753	-2.62431518	-0.869290101
3.356560882	-2.651729061	-0.873949671
3.279191918	-2.396335626	-0.871889738
2.872628065	-2.63774589	-0.870815562
3.356078941	-2.668111487	-0.875951374
3.255284446	-2.39421943	-0.867481976
2.874558118	-2.655818827	-0.873866429
3.347112529	-2.67778329	-0.875751222
3.276214375	-2.4251367	-0.875038115
2.851385617	-2.650670967	-0.869290103
3.332012923	-2.682509728	-0.873949672
3.254645634	-2.42466269	-0.871260018
2.867474038	-2.682073611	-0.876699436
3.310064156	-2.681618217	-0.870346571
3.250320665	-2.436982339	-0.872099608
2.855678501	-2.687513894	-0.875609804
3.289671423	-2.681855306	-0.867143834
3.238926501	-2.443998236	-0.871050149
2.855215289	-2.703643901	-0.878006983
3.27461057	-2.686342595	-0.865342283
3.226741174	-2.450375765	-0.869790821
2.861039224	-2.725855242	-0.882365395
3.267109365	-2.697000086	-0.865542437
3.225423108	-2.46501319	-0.871469944
2.858299206	-2.740023053	-0.884108771
3.257312307	-2.705758734	-0.865142131
3.219395467	-2.476089239	-0.871889739
2.849177001	-2.748101657	-0.883890855
3.253506102	-2.719509322	-0.866343164
3.214103248	-2.48774978	-0.872519402
2.828826272	-2.745275235	-0.88018619
3.252645662	-2.735784699	-0.868344868
3.207227118	-2.498199755	-0.872729271
2.81270918	-2.74644066	-0.877789067
3.249471958	-2.750181507	-0.869746054
3.1903137	-2.500789445	-0.870210616
2.809143424	-2.759844837	-0.879314471
3.251462258	-2.769031205	-0.872548485
3.190302858	-2.516620802	-0.872309477
2.800663179	-2.768450371	-0.879314473
3.248903397	-2.784093802	-0.874149825
3.185630112	-2.528828334	-0.873149067
2.785928523	-2.770835345	-0.87735318
3.24331457	-2.796607412	-0.874950494
3.19389885	-2.5514046	-0.877556771
2.78776279	-2.789724862	-0.880622019
3.219178541	-2.793060858	-0.870746934
3.178435771	-2.555065591	-0.875457853
2.768874689	-2.787877466	-0.877353181
3.215760937	-2.807434514	-0.872148121
3.173622495	-2.567264502	-0.876297442
2.752766802	-2.788718744	-0.874956061
3.208605015	-2.818580181	-0.872548485
3.15966527	-2.572051131	-0.87461832
2.743514659	-2.796454394	-0.874738146
3.210953981	-2.838143881	-0.875551011
3.150246698	-2.580493591	-0.874198525
2.749911846	-2.820231115	-0.879532387
3.215409455	-2.859701681	-0.879154111
3.140806299	-2.588902361	-0.87377873
2.750076065	-2.837765594	-0.882365394
3.208081169	-2.870859631	-0.879554475
3.138116605	-2.602895523	-0.875247984
2.740003066	-2.84478347	-0.881929566
3.190521229	-2.872821264	-0.877152408
3.126363058	-2.609378429	-0.874198525
2.713040503	-2.834141001	-0.876045692
3.169349083	-2.871413062	-0.87374946
3.115348235	-2.616442535	-0.873358936
2.719805343	-2.858713953	-0.881057849
3.164869171	-2.885083379	-0.874950494
3.104319211	-2.623463421	-0.872519402
2.694258503	-2.849316355	-0.875609806
3.158891103	-2.897428545	-0.875751222
3.088807779	-2.626641176	-0.870420485
2.699539893	-2.87250371	-0.880186189
3.151427039	-2.90843521	-0.876151528
3.091135164	-2.645004463	-0.873358935
2.697376178	-2.887904602	-0.882365394
3.141053376	-2.916756553	-0.875751222
3.077819285	-2.650009818	-0.871889738
2.685183609	-2.892590064	-0.881275762
3.127078698	-2.921697108	-0.874349977
3.071891613	-2.661360629	-0.872519402
2.682252869	-2.907270328	-0.883237112
3.070345213	-2.676554934	-0.874408394
2.687172283	-2.930591892	-0.887813438
3.072409511	-2.694988348	-0.877346902
2.684742419	-2.946035694	-0.889992643
3.063393862	-2.703754564	-0.877137033
2.687484545	-2.967279329	-0.893915226
3.052160288	-2.710543295	-0.876297443
2.666615338	-2.962453627	-0.889992644
3.040913918	-2.717288596	-0.875457853
2.652959212	-2.96552919	-0.888467183
3.089653503	-2.995128298	-0.879154111
3.030381924	-2.724643979	-0.874828189
2.634769761	-2.963443063	-0.885416317
3.088866572	-3.012802313	-0.881556178
3.022733678	-2.734584262	-0.875038116
2.630835555	-2.977363246	-0.887159693
3.080308187	-3.022950894	-0.881756331
3.014329718	-2.743845023	-0.875038115
2.621044794	-2.98468718	-0.886941778
3.071019325	-3.03238709	-0.881756331
3.005176473	-2.752419592	-0.874828189
2.624068748	-3.006685382	-0.891082276
3.063786848	-3.043866083	-0.882356848
2.999594084	-2.76427669	-0.87566778
2.614192542	-3.013984448	-0.890864361
3.053047983	-3.051866086	-0.881956542
2.993250014	-2.775460709	-0.876297443
2.615128808	-3.033818218	-0.894351113
3.040907474	-3.058439184	-0.881155814
2.991155094	-2.790633462	-0.878186492
2.592475169	-3.026262313	-0.88977473
3.038396713	-3.074723098	-0.883157575
2.980440923	-2.797789613	-0.877556771
2.592668412	-3.045348585	-0.893043567
3.030322237	-3.085428283	-0.883557881
2.98321629	-2.817662049	-0.880915075
2.583313167	-3.053288408	-0.893043566
3.018104539	-3.091906339	-0.882757212
2.992984761	-2.844312721	-0.886372237
2.573933774	-3.061199484	-0.893043567
3.009969052	-3.102557478	-0.883157575
2.972231172	-2.841994815	-0.882804065
2.55952345	-3.063090348	-0.891300189
3.00451674	-3.116009116	-0.884358609
2.957156758	-2.844999366	-0.880915074
2.555725543	-3.077686166	-0.893261482
2.997654427	-3.128041729	-0.885159279
2.942091921	-2.847938118	-0.879026024
2.530741448	-3.066693817	-0.887813438
2.992773616	-3.142189875	-0.886560465
2.930539031	-2.854222363	-0.878186492
2.516988935	-3.069161023	-0.886287977
2.992549117	-3.161318158	-0.889362896
2.926656814	-2.867989864	-0.879655688
2.50077896	-3.068546544	-0.883890856
2.922021467	-2.881074068	-0.880915074
2.507937269	-3.096682115	-0.889774729
2.98112523	-3.188208506	-0.891764963
2.929133266	-2.905862737	-0.885742574
2.498425019	-3.104361733	-0.889774729
2.924356354	-2.918979877	-0.887001901
2.493765927	-3.118109701	-0.891518105
2.95951225	-3.204281078	-0.891164446
2.92228599	-2.934866273	-0.889100819
2.487831211	-3.130330238	-0.892825652
2.921178164	-3.182309145	-0.882557058
2.912580531	-2.943123059	-0.888890951
2.479425658	-3.139479836	-0.893261482
2.910740945	-3.190532508	-0.882356848
2.909707926	-2.958318332	-0.890779943
2.473397283	-3.151678454	-0.894569028
2.89501582	-3.192915161	-0.880555356
2.8883157	-2.954646376	-0.887001901
2.468517977	-3.165408808	-0.896312405
2.884550657	-3.201054028	-0.880355145
2.87378707	-2.957883595	-0.885322779
2.455208087	-3.168338454	-0.895004858
2.882560056	-3.218646742	-0.882757211
2.857907105	-2.959653132	-0.883223861
2.445476269	-3.175855889	-0.895004857
2.88504836	-3.241380548	-0.886560465
2.849490591	-2.969112434	-0.883433787
2.43572122	-3.183343653	-0.895004857
2.886125903	-3.262691795	-0.889963412
2.848466014	-2.986330627	-0.885952443
2.428306363	-3.193909072	-0.895876575
2.879983858	-3.275946004	-0.891164445
2.849380726	-3.005698931	-0.88910082
2.424967393	-3.20990986	-0.898273695
2.87056447	-3.285504095	-0.891364599
2.846850765	-3.021542738	-0.891199738
2.418037482	-3.221237071	-0.899363326
2.855974691	-3.289116833	-0.889963412
2.82821133	-3.020271005	-0.888261287
2.405226129	-3.224728808	-0.898273695
2.845870471	-3.297863291	-0.889963412
2.824260619	-3.034659369	-0.889940409
2.384280289	-3.217194784	-0.894133198
2.838290584	-3.30955383	-0.890764083
2.822240128	-3.051205242	-0.892249197
2.381921901	-3.23471108	-0.896966149
2.833207837	-3.324211348	-0.892365479
2.810218919	-3.056970123	-0.891409663
2.36161379	-3.227825633	-0.893043567
2.825528893	-3.335878244	-0.893166148
2.790934979	-3.054750193	-0.888261288
2.358586123	-3.244528759	-0.895658602
2.819698105	-3.349778035	-0.894567336
2.787465324	-3.069812812	-0.890150278
2.357192667	-3.263617189	-0.89892744
2.813808369	-3.363673398	-0.895968522
2.779999269	-3.0805277	-0.890779942
2.350013847	-3.274798385	-0.900017072
2.8009701	-3.369276666	-0.895167853
2.773146402	-3.09195362	-0.891619532
2.341655648	-3.284376627	-0.900670816
2.793116137	-3.380875321	-0.895968522
2.767550917	-3.104826103	-0.89287886
2.3467999	-3.313048309	-0.906554747
2.783352371	-3.390185984	-0.896168734
2.765144012	-3.121352663	-0.895187704
2.32595255	-3.305068075	-0.902414193
2.775415766	-3.401745766	-0.896969403
2.761369733	-3.136425906	-0.897076697
2.295669152	-3.283393726	-0.894569028
2.767434497	-3.41328874	-0.897770072
2.744652145	-3.136788806	-0.894767909
2.750802606	-3.414133753	-0.895768369
2.723467501	-3.131914212	-0.890989868
2.737865875	-3.41949764	-0.894967699
2.713206677	-3.139515192	-0.890779941
2.726142133	-3.426347951	-0.894567336
2.697828859	-3.141149126	-0.888890951
2.716225034	-3.435464082	-0.894767489
2.711665129	-3.176926601	-0.896656901
2.711120078	-3.450714858	-0.896569039
2.703802875	-3.187467799	-0.897286622
2.69991771	-3.458244101	-0.896368887
2.682037887	-3.181544631	-0.893298655
2.688094153	-3.464962624	-0.895968522
2.678543329	-3.197252804	-0.895397574
2.666683922	-3.459226058	-0.89236548
2.671849371	-3.209212421	-0.896447032
2.653675453	-3.464279982	-0.891564753
2.652018946	-3.205341398	-0.893088787
2.651342303	-3.483319683	-0.894367183
2.641551628	-3.212707387	-0.89287886
2.653054517	-3.507847455	-0.8985708
2.626114877	-3.213982368	-0.890989868
2.639925539	-3.512837446	-0.897770072
2.634115302	-3.244035545	-0.897076696
2.634998033	-3.528770528	-0.899771834
2.616168552	-3.242209889	-0.894348114
2.630581098	-3.545493166	-0.901973689
2.611714058	-3.257085817	-0.896237163
2.614459104	-3.546449345	-0.90017214
2.598662583	-3.261259967	-0.895187704
2.595460943	-3.543388087	-0.897369767
2.585610294	-3.265384657	-0.894138246
2.5840012	-3.550542036	-0.897169556
2.567720393	-3.26331274	-0.891409664
2.569077568	-3.552895357	-0.89576837
2.559503275	-3.273485654	-0.892039327
2.562166808	-3.566330298	-0.897169556
2.548248603	-3.279778675	-0.891619533
2.551213508	-3.574174022	-0.897169555
2.541161858	-3.291450794	-0.892668992
2.536835422	-3.57718922	-0.895968522
2.532837132	-3.301558551	-0.893298655
2.532620487	-3.594566453	-0.898370589
2.53336549	-3.323309858	-0.897076696
2.532255849	-3.617569831	-0.902173843
2.537326242	-3.34977151	-0.902114121
2.526179741	-3.632561089	-0.903975393
2.528213196	-3.359102689	-0.902533917
2.518921859	-3.64593677	-0.905376637
2.517895769	-3.366843294	-0.902533917
2.508833308	-3.655263094	-0.905776943
2.508720956	-3.37612185	-0.902953655
2.498159272	-3.663752516	-0.905977154
2.49777051	-3.383015897	-0.902743785
2.488006239	-3.673021758	-0.90637746
2.492006489	-3.396969912	-0.904422909
2.478366825	-3.683076301	-0.906977977
2.475238119	-3.39590801	-0.902114123
2.469777941	-3.694735119	-0.907978857
2.461940507	-3.399526426	-0.901064662
2.463308886	-3.709640681	-0.909780407
2.452641505	-3.408650808	-0.901484458
2.448679527	-3.712273369	-0.908579374
2.439897927	-3.412977895	-0.900644868
2.43405713	-3.714851182	-0.90737834
2.42658462	-3.416461862	-0.899595409
2.419441931	-3.717374361	-0.906177307
2.416091644	-3.423890402	-0.899595409
2.416004552	-3.737121579	-0.90917989
2.402208435	-3.426483273	-0.898336082
2.408233709	-3.750287224	-0.910581078
2.395037506	-3.438650731	-0.899595408
2.394609241	-3.754353599	-0.909780407
2.379469545	-3.438746284	-0.897706359
2.386225725	-3.766648484	-0.910981441
2.37444715	-3.454087454	-0.899805278
2.376223847	-3.776439237	-0.911581957
2.366595981	-3.46539286	-0.900854736
2.335632831	-4.0594482	-0.910022731
2.358395898	-3.773741366	-0.90917989
2.355953234	-3.47263723	-0.900854737
2.323654625	-4.067447049	-0.910213524
2.340606832	-3.770969802	-0.906777823
2.350206229	-3.487145691	-0.902743785
2.334682202	-3.787307234	-0.90897968
2.352551217	-3.513838478	-0.907781212
2.306360502	-4.095313493	-0.913265342
2.3281675	-3.802808039	-0.91098144
2.337428275	-3.514526435	-0.90610203
2.292348249	-4.099799287	-0.912693136
2.315980824	-3.809095862	-0.910781231
2.332024283	-3.52983894	-0.908200949
2.279759328	-4.106813043	-0.912693137
2.302764423	-3.813667061	-0.910180714
2.322256794	-3.538611587	-0.908620744
2.276151344	-4.130122496	-0.916317217
2.287022456	-3.813991777	-0.908579374
2.314059333	-3.549814874	-0.909670203
2.258757957	-4.128474549	-0.914409809
2.274809314	-3.820148447	-0.908379221
2.303157768	-3.556897536	-0.909670203
2.24842409	-4.139698131	-0.915363485
2.265572104	-3.831326209	-0.909380044
2.299110061	-3.574636996	-0.912398784
2.232917917	-4.141392388	-0.914219075
2.250830516	-3.83318967	-0.908179011
2.292343457	-3.588265375	-0.914077908
2.219738419	-4.147357937	-0.914028282
2.236592214	-3.83584492	-0.907178187
2.286038695	-3.602711264	-0.915966958
2.211149124	-4.161950221	-0.915744954
2.226777041	-3.846080449	-0.907978857
2.278102702	-3.614670657	-0.917226285
2.200201575	-4.172187817	-0.916507953
2.219361761	-3.860538619	-0.909780408
2.260258291	-3.610868889	-0.914497702
2.190122512	-4.184136578	-0.917652363
2.209935871	-3.871583833	-0.91078123
2.249685904	-3.618616809	-0.914707629
2.182253753	-4.200418157	-0.919750507
2.196598454	-3.875788353	-0.910180713
2.234464359	-3.618846185	-0.913028449
2.170256465	-4.208838397	-0.920131977
2.170763587	-3.857747234	-0.904375756
2.222840095	-3.624850988	-0.91281858
2.156439477	-4.213728894	-0.919750506
2.17516492	-3.893470237	-0.911181594
2.209674691	-3.628313285	-0.91197899
2.144835182	-4.222950775	-0.920322769
2.161308834	-3.896697995	-0.910380924
2.193978724	-3.627546018	-0.910089999
2.130985604	-4.227757908	-0.919941241
2.15217912	-3.90845996	-0.911581957
2.176798351	-3.624201919	-0.907571286
2.120639971	-4.23954336	-0.921085709
2.143467777	-3.921062372	-0.912983145
2.161662419	-3.6241456	-0.905892163
2.108059785	-4.246908816	-0.921276445
2.129091556	-3.923314342	-0.911982265
2.163488531	-3.652632507	-0.911349326
2.091550367	-4.246311378	-0.919750506
2.125409068	-3.945353885	-0.915585365
2.152767855	-3.660095659	-0.911559253
2.075926804	-4.24741654	-0.918606096
2.121149308	-3.966543492	-0.918988312
2.135118475	-3.655707264	-0.90883067
2.058602735	-4.24493284	-0.916698688
2.104376329	-3.964378356	-0.91698655
2.131740822	-3.675773217	-0.912188916
2.043441726	-4.246805818	-0.915744956
2.099511338	-3.984684916	-0.920189346
2.121429451	-3.683990489	-0.912608711
2.035477981	-4.263685157	-0.918033833
2.075925403	-3.969402056	-0.915185057
2.110602589	-3.691330385	-0.91281858
2.024908684	-4.275232798	-0.9191783
2.070508335	-3.988796487	-0.918187585
2.091061976	-3.683333774	-0.909250408
2.013035353	-4.284090424	-0.919750506
2.056915084	-3.992516611	-0.917587066
2.078791434	-3.688028189	-0.90883067
2.006518441	-4.304481612	-0.922802382
2.043318426	-3.996191705	-0.916986552
2.084178607	-3.72425085	-0.916176826
1.996186953	-4.316854603	-0.924137528
2.030161797	-4.000693916	-0.916586243
2.071318372	-3.72806338	-0.915547161
1.982115243	-4.321173651	-0.923756057
2.01787841	-4.006903958	-0.916586246
2.052315475	-3.720702677	-0.912188916
1.968848549	-4.327234407	-0.923756057
2.007327755	-4.016581365	-0.917386914
2.041830035	-3.728696623	-0.912608711
1.900092115	-4.657362437	-0.928359955
1.958390042	-4.339517721	-0.92509126
1.997607411	-4.027987117	-0.918587947
2.032248866	-3.738379543	-0.913448245
1.883951196	-4.658611199	-0.927452472
1.945468523	-4.346401641	-0.925281996
1.986105508	-4.035855019	-0.918988311
2.024949067	-3.752340668	-0.915337294
1.870381673	-4.666195072	-0.927815466
1.933319686	-4.355041112	-0.9258542
1.974574174	-4.043690307	-0.919388618
2.010195763	-3.752502389	-0.913868039
1.849884815	-4.656374726	-0.92473003
1.918367377	-4.357358509	-0.925091261
1.961731903	-4.048847493	-0.919188466
2.006936559	-3.774190708	-0.91764608
1.840634316	-4.674838313	-0.927270976
1.906168407	-4.365922311	-0.925663465
1.948876411	-4.053963959	-0.918988313
1.994891564	-3.779465365	-0.91743621
1.828785686	-4.686876379	-0.92854145
1.889644835	-4.364542947	-0.924137526
1.934742756	-4.056386591	-0.918187585
1.981472014	-3.782103617	-0.91659662
1.815461981	-4.695216439	-0.929085938
1.877407509	-4.373025846	-0.92470979
1.923127037	-4.064074277	-0.918587948
1.964446544	-3.777755523	-0.914077908
1.801400519	-4.701682391	-0.929267434
1.865135921	-4.381474732	-0.925281995
1.918143884	-4.085919078	-0.922191047
1.951950476	-3.782027006	-0.913658171
1.788712602	-4.711783616	-0.930174914
1.853593485	-4.39169825	-0.92623567
1.902290388	-4.084679534	-0.920589651
1.940783748	-3.788867721	-0.913868038
1.773210055	-4.71448801	-0.929630427
1.840490183	-4.398269995	-0.926426464
1.890982566	-4.093164908	-0.921190169
1.930922987	-3.798290549	-0.91470763
1.76354496	-4.732806783	-0.932171431
1.827363933	-4.404802489	-0.926617198
1.878824169	-4.099837651	-0.921390379
1.919701247	-3.805069589	-0.914917498
1.74901661	-4.738195033	-0.932171431
1.815708421	-4.414927322	-0.927570873
1.865831765	-4.104690609	-0.921190168
1.911082464	-3.817060979	-0.916386752
1.734471814	-4.743538809	-0.932171432
1.80474926	-4.426840148	-0.928906077
1.853229985	-4.110395505	-0.921190168
1.90501836	-3.834289036	-0.919115333
1.719240966	-4.746988462	-0.931808439
1.790791559	-4.431446248	-0.928715343
1.84301046	-4.121428408	-0.922391202
1.706993566	-4.758720175	-0.933078912
1.780107622	-4.444209458	-0.930241222
1.829563067	-4.125271873	-0.921990895
1.88918947	-3.861714557	-0.922893374
1.693702719	-4.767641285	-0.933804896
1.766826865	-4.450561927	-0.930431956
1.818081643	-4.133555954	-0.922591412
1.877760034	-3.86837175	-0.923103242
1.685268563	-4.790440619	-0.937253324
1.752805025	-4.455048386	-0.930241223
1.805783241	-4.140012629	-0.922791566
1.870550022	-3.883804225	-0.925412087
1.6712107	-4.79744603	-0.937616318
1.738415691	-4.458575786	-0.929859753
1.796185001	-4.152727154	-0.924392906
1.655843176	-4.800690987	-0.937253324
1.724374951	-4.462972322	-0.929669017
1.785367084	-4.16272021	-0.925393785
1.639835953	-4.802026091	-0.93652734
1.711025646	-4.46915829	-0.929859751
1.777572263	-4.179899042	-0.927996005
1.623521026	-4.80237641	-0.935619858
1.698350852	-4.477140365	-0.930431958
1.768927313	-4.195263825	-0.93019792
1.603786665	-4.792414056	-0.932715921
1.686333984	-4.486924275	-0.931385691
1.7560481	-4.200670666	-0.930197918
1.584747138	-4.78424259	-0.930174916
1.673930411	-4.495756285	-0.93214863
1.742402192	-4.204228177	-0.929797554
1.572206267	-4.795623241	-0.931445447
1.661148833	-4.503633535	-0.932720892
1.727633866	-4.205022739	-0.928796731
1.561431436	-4.812584207	-0.933804898
1.647324059	-4.508708759	-0.932720893
1.712877154	-4.205766605	-0.927795853
1.550567269	-4.829524082	-0.936164348
1.625800746	-4.492511196	-0.928333814
1.69849897	-4.207367677	-0.926995183
1.538422861	-4.842693497	-0.937797813
1.615653687	-4.507642661	-0.930431956
1.682671126	-4.205281695	-0.925393786
1.521199486	-4.839885421	-0.936345844
1.598204698	-4.502402561	-0.928333815
1.671928665	-4.215888497	-0.926594817
1.503132044	-4.834200006	-0.934349386
1.584383949	-4.507284636	-0.928333815
1.660420201	-4.224645501	-0.927395487
1.485113659	-4.828449634	-0.932352928
1.574097971	-4.522321792	-0.930431956
1.64816254	-4.231546034	-0.927795853
1.469434564	-4.830160707	-0.93180844
1.561495624	-4.530842367	-0.931194956
1.640111671	-4.249378874	-0.930598224
1.454892293	-4.835587671	-0.931989935
1.548538837	-4.538398658	-0.93176716
1.624967162	-4.248900072	-0.929397249
1.440330518	-4.840971141	-0.932171432
1.530838205	-4.531967767	-0.929478281
1.616090098	-4.264859615	-0.931799258
1.432687929	-4.869895961	-0.936890333
1.515681946	-4.532919149	-0.928715341
1.604375509	-4.273466669	-0.932599986
1.416367409	-4.869547174	-0.935982852
1.504543956	-4.54593535	-0.930431957
1.597063444	-4.293979735	-0.936002875
1.400605893	-4.871034112	-0.935438362
1.489979015	-4.548664151	-0.930050488
1.582527307	-4.295182192	-0.935202207
1.385386331	-4.874362499	-0.935256867
1.47601687	-4.553213879	-0.930050487
1.571021945	-4.304619017	-0.936203088
1.372287045	-4.885216712	-0.936527339
1.460841481	-4.553981702	-0.929287546
1.356503899	-4.886561268	-0.935982851
1.448348012	-4.563120288	-0.930241221
1.340725301	-4.887855184	-0.935438363
1.434930014	-4.569415386	-0.930622749
1.327266638	-4.897640051	-0.936527339
1.421486924	-4.575671273	-0.93100422
1.313760537	-4.907388587	-0.937616316
1.408307339	-4.582825892	-0.931576426
1.300206998	-4.917100793	-0.938705353
1.399093777	-4.60309152	-0.934819037
1.286606244	-4.926775242	-0.939794329
1.381856641	-4.597021328	-0.932720894
1.273203968	-4.93736513	-0.941064803
1.368865541	-4.605002946	-0.933483834
1.257079892	-4.937435905	-0.940338817
1.354731142	-4.609180733	-0.933483833
1.242165778	-4.942222991	-0.940520313
1.341953618	-4.618028562	-0.934437508
1.228418107	-4.951737357	-0.94160929
1.328321395	-4.624010976	-0.934819037
1.214389913	-4.960258865	-0.942516772
1.314933333	-4.630897375	-0.935391242
1.547577993	-5.142384528	-0.946622303
1.532075081	-5.148051977	-0.946795929
1.517385934	-5.156507393	-0.947490325
1.496056624	-5.142226164	-0.944018355
1.481906609	-5.15247048	-0.945059945
1.32362531	-5.405111148	-0.923944225
1.467438684	-5.161729082	-0.945927967
1.454526108	-5.176635726	-0.94783752
1.438637608	-5.181073795	-0.94783752
1.422214354	-5.183563893	-0.947490324
0.616371206	-3.866320948	0.726618511
1.403728186	-5.178397329	-0.945754338
1.389872358	-5.19029	-0.947143126
0.598291816	-3.906961293	0.733552615
1.374194057	-5.195481593	-0.947316695
0.594178345	-3.961284396	0.743406277
1.360239283	-5.20729589	-0.948705483
0.580308102	-3.951415623	0.741216582
1.34105944	-5.199047655	-0.946448732
0.566783823	-3.943445082	0.739391843
1.328991494	-5.218407254	-0.949226308
0.553587746	-3.937376588	0.737932009
1.313695704	-5.225325135	-0.949747074
0.542174937	-3.94392658	0.738844435
1.297658414	-5.229330889	-0.949747074
0.527847052	-3.929005493	0.735742311
1.264742615	-5.164415949	-0.9372481
0.506196207	-3.857492364	0.722056666
0.635015679	-3.758477134	0.668958422
0.764278674	-3.701010889	0.484248061
0.536744633	-4.189893052	0.947070102
0.496857895	-3.878532319	0.725706142
0.622192945	-3.752634009	0.667575534
0.525097893	-4.201202567	0.949257832
0.498979527	-3.992234555	0.746690851
0.610677093	-3.754525362	0.667575535
0.510789738	-4.191170219	0.946632544
0.496125952	-4.070849629	0.761106471
0.599620953	-3.759299138	0.668094096
0.497123513	-4.185934789	0.94510118
0.588236911	-3.762094221	0.668266949
0.48439098	-4.188409753	0.945319931
0.577438042	-3.768749006	0.669131274
0.471320587	-4.187936848	0.944882374
0.619591201	-4.12451225	0.891475548
0.569089016	-3.791931864	0.672934112
0.458682271	-4.191302898	0.945319929
0.609495973	-4.143809004	0.895237915
0.558455194	-3.80048125	0.674144145
0.446337272	-4.197542306	0.946413797
0.59441138	-4.129204481	0.891684582
0.544129005	-3.783653307	0.670859811
0.43385807	-4.202774098	0.94728891
0.582013068	-4.132945249	0.89210259
0.533616044	-3.793107622	0.672242698
0.421837071	-4.212823792	0.949257832
0.573065701	-4.161837206	0.89795523
0.522647537	-3.799605492	0.673106965
0.408816102	-4.213126875	0.949039082
0.560946779	-4.168421705	0.899000338
0.511644175	-3.806072076	0.673971291
0.394793343	-4.202703446	0.946413796
0.547773276	-4.167214146	0.898373237
0.499964901	-3.807623848	0.673971291
0.380397021	-4.187374735	0.942694646
0.534985836	-4.168875177	0.898373238
0.48840615	-3.810116606	0.674144144
0.613921953	-3.703299816	0.62184839
0.366269074	-4.173941394	0.939413052
0.521950436	-4.16855632	0.89795523
0.476225632	-3.807687876	0.673452673
0.602399142	-3.704192086	0.621684955
0.346053498	-4.087538557	0.919723432
0.509633085	-4.174020484	0.898791303
0.729436005	-6.165595277	-0.970574706
0.497056028	-4.177506665	0.899209312
0.709046905	-6.155044504	-0.968566805
0.484124724	-4.17804069	0.899000338
0.629769733	-4.103781648	0.845301677
0.69082048	-6.163081753	-0.969493537
0.471304411	-4.179505918	0.899000335
0.617176513	-4.105694711	0.845301679
0.672551416	-6.171065551	-0.97042027
0.45901265	-4.185792865	0.900045445
0.603436042	-4.099812857	0.843705585
0.653927794	-6.176047139	-0.970883577
0.447101198	-4.195933075	0.901926628
0.591134576	-4.103584984	0.844104639
0.439375212	-6.655070378	-0.978809368
0.634976853	-6.178024609	-0.970883578
0.435232479	-4.20701212	0.904016843
0.578542136	-4.105379131	0.844104638
0.418520627	-6.64947496	-0.977792989
0.616607914	-6.185842339	-0.971810311
0.42251877	-4.210273838	0.904434852
0.56621185	-4.109076273	0.844503633
0.398059251	-6.649739834	-0.977647792
0.597627152	-6.187704806	-0.97181031
0.408274609	-4.197923852	0.901508562
0.55896478	-4.150610384	0.852683298
0.377263637	-6.64401512	-0.976631354
0.579468412	-6.198362493	-0.97320035
0.389068049	-4.13197779	0.887086085
0.547761873	-4.163963838	0.855077376
0.357568077	-6.657985176	-0.978518974
0.559826722	-6.193223477	-0.972119241
0.536482316	-4.177287668	0.857471455
0.337590243	-6.667944042	-0.979825864
0.542971731	-6.219518001	-0.97598049
0.524029559	-4.181830959	0.858069947
0.318118613	-6.689702207	-0.982875002
0.523887948	-6.221154759	-0.975980491
0.700288028	-5.783007632	-0.96718501
0.511435115	-4.185364253	0.858468941
0.297989075	-6.699542747	-0.984181892
0.504319933	-6.216823859	-0.975053815
0.68219597	-5.782189379	-0.966693628
0.49893984	-4.189832567	0.859067489
0.277147233	-6.693505528	-0.983165513
0.485014053	-6.215386844	-0.974590449
0.664791021	-5.787195643	-0.96718501
0.48608323	-4.19134348	0.859067488
0.625273506	-4.075609595	0.799023051
0.256534748	-6.692346794	-0.982875002
0.465500172	-6.21093427	-0.973663717
0.646046855	-5.780384405	-0.965710868
0.482673338	-4.276554516	0.876224865
0.608827565	-4.051296507	0.793886503
0.236210892	-6.699035336	-0.983746301
0.446726387	-6.216274939	-0.974281519
0.628949242	-5.788223466	-0.966693629
0.59596675	-4.050231554	0.793315731
0.215179966	-6.684895119	-0.981568229
0.428195383	-6.225501791	-0.975517124
0.61046335	-5.78325845	-0.965547074
0.585637067	-4.066616398	0.79616942
0.194727578	-6.687501865	-0.981858623
0.409417652	-6.231715471	-0.97628942
0.593119867	-5.789029377	-0.966202248
0.574664627	-4.079087305	0.798262079
0.174106639	-6.684111397	-0.981277835
0.390914551	-6.242802864	-0.977833955
0.575844237	-5.795730091	-0.967021215
0.565496735	-4.105145151	0.803018173
0.153440168	-6.677690117	-0.980261456
0.372229832	-6.251862708	-0.979069559
0.558627635	-5.803361547	-0.968003977
0.554340558	-4.117563013	0.805110832
0.132952573	-6.678129536	-0.980261456
0.353047617	-6.252975545	-0.97906956
0.541278068	-5.809959176	-0.968822886
0.54272943	-4.12703158	0.806632837
0.11241376	-6.675538145	-0.979825865
0.333388106	-6.245149555	-0.97767946
0.52345084	-5.811592409	-0.968822886
0.551317955	-4.294213504	0.838974198
0.313978474	-6.241209274	-0.976907222
0.505533196	-5.812188002	-0.968659092
0.294782624	-6.241156608	-0.976752787
0.487534344	-5.811745954	-0.968331565
0.275372113	-6.236109037	-0.975826053
0.469701845	-5.813214073	-0.968331564
0.256157585	-6.234950512	-0.975517124
0.452017815	-5.816594743	-0.968659092
0.237027842	-6.235706928	-0.975517124
0.218068338	-6.241341829	-0.976289421
0.199139431	-6.248894055	-0.977370589
0.179995603	-6.250462893	-0.977524966
0.160996461	-6.257899652	-0.978606194
0.432647387	-4.279438098	1.000141451
0.14170723	-6.25441299	-0.977988333
0.418946226	-4.27492907	0.998782583
0.122711777	-6.264696396	-0.979532926
0.402700112	-4.243225956	0.991082258
0.389056851	-4.237651551	0.989496891
0.376054081	-4.238825283	0.989496892
0.363213974	-4.241900103	0.989949772
0.350198299	-4.242994559	0.989949772
0.336947895	-4.241135903	0.989270395
0.322673979	-4.225639644	0.985420176
0.306647584	-4.184839008	0.975681491
0.282417781	-4.023498649	0.937859124
-0.410782728	-7.158782046	-0.993083839
-0.433759899	-7.174297006	-0.995416049
-0.456710452	-7.187760578	-0.997473839
-0.479286806	-7.194232252	-0.99857128
-0.501631688	-7.196680815	-0.999120002
-0.523708388	-7.195107699	-0.999120001
-0.545855165	-7.194454843	-0.99925721
-2.061378477	-7.737056438	0.220857383
-2.050688836	-7.879180346	0.14708844
-2.134224597	-7.700560468	0.361184945
-5.668952036	-11.30944833	1.86877213
-5.718340513	-11.32114188	1.873594621
-5.769200663	-11.33528475	1.878855448
-5.812075378	-11.33337662	1.88148592
-5.859533613	-11.34010049	1.885577659
-5.901149322	-11.33523178	1.887769679
-5.944628206	-11.33371933	1.890546301
-5.992775021	-11.3407931	1.894784191
-6.030793994	-11.3284675	1.895807127
-6.065053282	-11.30904017	1.895660977
-5.542186991	-11.30665778	1.735850001
-6.109594793	-11.30865704	1.898729781
-5.590888839	-11.31802277	1.740219975
-6.14202825	-11.28435059	2.3844109
-6.150408102	-11.30115596	1.900629501
-5.632649509	-11.31500665	1.742405081
-6.181345984	-11.27407519	2.386235754
-6.18837965	-11.288306	1.901652555
-5.677553159	-11.31803808	1.745546007
-6.226362588	-11.27399292	2.390250246
-6.234937802	-11.29091727	1.905305843
-5.726997403	-11.32974157	1.750052595
-6.261877451	-11.25655594	2.390615028
-6.292149167	-11.3123677	1.912174204
-5.772519821	-11.33330383	1.753330017
-6.313684135	-11.26817101	2.397184175
-5.813142889	-11.32699776	1.7551054
-6.36562119	-11.27957271	2.403753321
-5.852416668	-11.31790917	1.756471061
-6.414772297	-11.28563409	2.409227651
-5.892146951	-11.30956568	1.757973219
-6.482582247	-11.32392324	2.421635907
-5.941088939	-11.31862608	1.762206697
-6.504524496	-11.28183601	2.416891616
-5.990141735	-11.32749412	1.766440059
-5.479524268	-11.34831637	1.614795704
-6.592426405	-11.35365589	2.436599056
-6.004614217	-11.2800613	2.24265277
-6.026263353	-11.31168613	1.766849781
-5.519956532	-11.34304616	1.616448063
-6.582533323	-11.25694409	2.923687856
-6.635665112	-11.34780593	2.43970112
-6.06107059	-11.30238298	2.250777121
-6.070776533	-11.3114748	1.769717599
-5.56215561	-11.34119708	1.618608731
-6.661105504	-11.31152983	2.943158786
-6.670947065	-11.32824237	2.439883512
-6.090099473	-11.27333621	2.248702879
-6.100739689	-11.28408213	1.768351937
-5.611866445	-11.3543124	1.622930068
-6.703243252	-11.30363012	2.94644038
-6.707676438	-11.3111052	2.440613547
-6.146784616	-11.29526075	2.256826995
-6.146701397	-11.28619165	1.771629477
-5.655961237	-11.35568735	1.625599165
-6.744394648	-11.29390245	2.949284475
-6.749404257	-11.30229194	2.443168204
-6.178095053	-11.27030293	2.255617019
-5.697892286	-11.35246493	1.627632755
-6.79359481	-11.29740818	2.955628794
-6.222164422	-11.26854063	2.259074325
-5.726874974	-11.32342398	1.625980514
-6.84136374	-11.2982143	2.961316984
-6.277771531	-11.28727211	2.26667988
-5.767892716	-11.31817369	1.627759833
-6.886661457	-11.29466711	2.965911307
-6.324405245	-11.28944139	2.271001453
-5.808026555	-11.31101349	1.629285115
-6.917196539	-11.26683388	2.964161078
-6.368691217	-11.28714201	2.274458524
-5.854095273	-11.3151651	1.63246252
-6.957373987	-11.25468881	2.966567438
-6.438815285	-11.33006136	2.287077066
-5.874002894	-11.28320857	2.107257172
-5.888323815	-11.29627242	1.632335443
-7.013010748	-11.26725652	2.975537222
-6.477948496	-11.31794823	2.288632985
-5.921880748	-11.2904703	2.111996458
-5.925258579	-11.28254513	1.632970948
-7.070344345	-11.28206844	2.985163371
-6.513379054	-11.3029486	2.788343243
-6.527889433	-11.32447396	2.293991443
-5.967092781	-11.29231163	2.115755366
-5.977472332	-11.29762958	1.637800712
-7.101799764	-11.25537191	2.983850638
-6.549006896	-11.28460395	2.788761191
-6.564085274	-11.30694829	2.294510003
-6.016544069	-11.30181887	2.120985078
-6.019569685	-11.2932422	1.639834303
-7.185265916	-11.30320323	3.533759538
-7.136297188	-11.23353074	2.983850638
-6.590011765	-11.27543388	2.791478446
-6.62161122	-11.32587038	2.302461501
-6.041863757	-11.26591813	2.117716595
-7.211049098	-11.26726106	3.529422704
-7.190706165	-11.24282152	2.992164056
-6.6607839	-11.31668576	2.806736998
-6.657326386	-11.30719983	2.302807208
-6.09750046	-11.28638841	2.125070855
-7.274386804	-11.28978887	3.543453637
-7.268483284	-11.28798115	3.010103386
-6.70544417	-11.31302174	2.810917429
